# .PCD v.7 - Point Cloud Data file format
FIELDS x y z
SIZE 4 4 4
TYPE F F F
COUNT 1 1 1
WIDTH 1398
HEIGHT 1
VIEWPOINT 0 0 0 1 0 0 0
POINTS 1398
DATA ascii
-0.008690238 -0.04137594 0.1950908
-0.007627904 -0.04173011 0.1950706
-0.006565571 -0.04208428 0.1950504
-0.005503237 -0.04243845 0.1950303
-0.004440904 -0.04279262 0.1950101
-0.002695084 -0.04168057 0.1937159
-0.001285553 -0.04130346 0.1930587
-0.0002177954 -0.04165944 0.1930384
0.001197159 -0.04128414 0.192381
0.002266705 -0.04164073 0.1923607
0.003687084 -0.04126719 0.1917032
0.004758477 -0.04162437 0.1916829
0.005829811 -0.04198158 0.1916625
0.007257402 -0.04161048 0.191005
0.008330584 -0.04196829 0.1909846
-0.01567239 -0.04080904 0.1951424
-0.01461184 -0.04116261 0.1951222
-0.01355135 -0.04151616 0.1951021
-0.01249081 -0.04186973 0.195082
-0.01110166 -0.0414874 0.1944239
-0.01003933 -0.04184157 0.1944038
-0.0086447 -0.04146099 0.1937455
-0.007914662 -0.04254991 0.1943634
-0.006852329 -0.04290408 0.1943433
-0.005789995 -0.04325825 0.1943231
-0.004727662 -0.04361242 0.194303
-0.002982736 -0.04250318 0.1930063
-0.001573682 -0.04212749 0.1923479
-0.0001610518 -0.04175296 0.1916893
0.000908494 -0.04210955 0.191669
0.002326548 -0.04173678 0.1910104
0.003748238 -0.04136533 0.1903517
0.00482142 -0.0417231 0.1903313
0.005894542 -0.04208088 0.190311
0.006967783 -0.04243869 0.1902906
0.008398473 -0.04207018 0.1896317
0.009473443 -0.04242858 0.1896113
-0.01595867 -0.04162744 0.1944364
-0.01489812 -0.04198101 0.1944163
-0.01351309 -0.04159886 0.1937571
-0.01245075 -0.04195303 0.1937369
-0.01106024 -0.04157263 0.1930775
-0.009996116 -0.0419274 0.1930573
-0.008931994 -0.04228219 0.1930372
-0.007867813 -0.04263696 0.1930169
-0.006803691 -0.04299176 0.1929968
-0.00573957 -0.04334652 0.1929766
-0.004336417 -0.04297039 0.192317
-0.002929688 -0.04259551 0.1916574
-0.001519322 -0.04222175 0.1909977
-0.000105381 -0.0418492 0.1903378
0.0009660125 -0.04220641 0.1903175
0.002385378 -0.04183573 0.1896577
0.00345856 -0.0421935 0.1896373
0.004531741 -0.04255128 0.1896169
0.005604923 -0.04290909 0.1895966
0.007033348 -0.04254138 0.1889365
0.008108318 -0.04289976 0.1889161
0.009183288 -0.04325816 0.1888957
0.01025826 -0.04361653 0.1888753
-0.01528358 -0.04023921 0.1918097
-0.0145399 -0.04132953 0.1924297
-0.01347578 -0.0416843 0.1924095
-0.01241159 -0.0420391 0.1923893
-0.01134747 -0.04239386 0.1923692
-0.009953856 -0.04201609 0.1917086
-0.008887887 -0.04237148 0.1916883
-0.007821977 -0.04272687 0.1916681
-0.006756067 -0.04308224 0.1916479
-0.005690098 -0.0434376 0.1916277
-0.004285634 -0.04306352 0.1909668
-0.003217936 -0.04341951 0.1909466
-0.001465917 -0.04231882 0.189645
-0.0003945231 -0.042676 0.1896247
0.001022577 -0.0423061 0.1889637
0.002095699 -0.04266387 0.1889433
0.003168881 -0.04302168 0.1889229
0.004593194 -0.04265416 0.1882617
0.005668163 -0.04301256 0.1882413
0.006743193 -0.04337096 0.1882209
0.007818162 -0.04372934 0.1882005
0.008893132 -0.04408774 0.1881801
0.009968102 -0.04444611 0.1881597
-0.0152514 -0.0403277 0.1904587
-0.01450539 -0.04141718 0.1910799
-0.01343942 -0.04177257 0.1910596
-0.01237345 -0.04212797 0.1910394
-0.01130754 -0.04248333 0.1910192
-0.01024163 -0.04283869 0.190999
-0.009175658 -0.04319409 0.1909788
-0.008109689 -0.04354948 0.1909585
-0.007043719 -0.04390484 0.1909383
-0.00564158 -0.04353154 0.1902764
-0.004573822 -0.0438875 0.1902561
-0.003166318 -0.04351598 0.189594
-0.001755118 -0.0431456 0.1889318
0.0003465414 -0.04132387 0.1869859
0.001423359 -0.04168284 0.1869654
0.002500117 -0.04204184 0.186945
0.003576934 -0.04240084 0.1869246
0.004653692 -0.04275984 0.1869041
0.006082952 -0.04239556 0.1862416
0.006807268 -0.04347783 0.1868633
0.008240104 -0.04311475 0.1862007
0.009318709 -0.04347435 0.1861802
0.01039732 -0.04383394 0.1861598
-0.01597202 -0.03932896 0.1884829
-0.01553959 -0.0411517 0.1897479
-0.01447183 -0.04150766 0.1897277
-0.01340407 -0.04186365 0.1897074
-0.01233637 -0.04221964 0.1896871
-0.01126862 -0.04257563 0.1896669
-0.01020086 -0.04293162 0.1896466
-0.009133101 -0.04328758 0.1896264
-0.008065343 -0.04364356 0.1896061
-0.006997585 -0.04399955 0.1895859
-0.005594134 -0.04362819 0.1889226
-0.004186988 -0.04325801 0.1882593
-0.002776325 -0.04288912 0.187596
-0.001361966 -0.04252136 0.1869326
5.590916e-05 -0.04215485 0.1862691
0.001132727 -0.04251385 0.1862487
0.002209485 -0.04287282 0.1862282
0.003286242 -0.04323182 0.1862078
0.004713237 -0.04286832 0.1855441
0.005791843 -0.04322794 0.1855236
0.006870389 -0.04358754 0.1855032
0.008304596 -0.04322636 0.1848394
0.0090276 -0.04430673 0.1854622
0.01010621 -0.04466632 0.1854418
-0.01626122 -0.04015577 0.1877697
-0.01550883 -0.04124433 0.1883933
-0.01476002 -0.04233167 0.1890169
-0.01369226 -0.04268765 0.1889966
-0.0126245 -0.04304364 0.1889764
-0.01155674 -0.04339963 0.1889561
-0.01048899 -0.04375559 0.1889359
-0.009421229 -0.04411158 0.1889156
-0.008353472 -0.04446757 0.1888953
-0.006952345 -0.04409701 0.188231
-0.005547523 -0.04372764 0.1875665
-0.004139125 -0.04335952 0.186902
-0.003065944 -0.04371729 0.1868816
-0.001311541 -0.0426268 0.1855727
-0.0002347231 -0.0429858 0.1855523
0.0008420944 -0.0433448 0.1855319
0.002264917 -0.04298151 0.1848671
0.003691435 -0.04261935 0.1842022
0.004771829 -0.04297954 0.1841817
0.005852222 -0.04333973 0.1841612
0.00657928 -0.04441988 0.1847852
0.007657886 -0.04477948 0.1847647
0.008736491 -0.04513907 0.1847443
0.009815097 -0.04549867 0.1847238
-0.01623374 -0.040252 0.1864116
-0.0157975 -0.04206973 0.1876813
-0.01472795 -0.04242632 0.1876611
-0.01398051 -0.04351166 0.1882859
-0.01258886 -0.04313949 0.1876205
-0.01151931 -0.04349607 0.1876001
-0.01044971 -0.04385266 0.1875799
-0.009380162 -0.04420924 0.1875596
-0.008310556 -0.04456583 0.1875393
-0.006908059 -0.04419723 0.1868736
-0.005501986 -0.04382989 0.186208
-0.004428804 -0.04418766 0.1861876
-0.003017306 -0.04382211 0.1855218
-0.001942277 -0.04418051 0.1855014
0.0008425117 -0.04092824 0.1822535
0.001239002 -0.04273272 0.183524
0.002319396 -0.04309291 0.1835035
0.003747165 -0.04273278 0.1828374
0.004829407 -0.04309356 0.1828169
0.005911589 -0.04345435 0.1827963
0.006640971 -0.0445337 0.1834215
0.007721424 -0.04489389 0.183401
0.008801818 -0.04525408 0.1833805
-0.0175966 -0.0407224 0.1857176
-0.01652336 -0.04108018 0.1856972
-0.01545024 -0.04143798 0.1856768
-0.01501667 -0.04325169 0.1869491
-0.01394713 -0.04360831 0.1869288
-0.01287752 -0.04396486 0.1869085
-0.01180798 -0.04432148 0.1868882
-0.01008433 -0.04322693 0.185575
-0.009011149 -0.0435847 0.1855547
-0.008268654 -0.04466683 0.1861808
-0.005202591 -0.04068154 0.1822813
-0.004454613 -0.04176548 0.1829073
-0.003038168 -0.04140311 0.1822402
-0.001955986 -0.04176393 0.1822197
0.0001452565 -0.03996068 0.1802591
0.001232862 -0.04032329 0.1802385
0.002320528 -0.04068589 0.1802179
0.003063023 -0.04176807 0.180844
0.004148841 -0.04213008 0.1808234
0.005234659 -0.04249209 0.1808028
0.005970001 -0.04357177 0.1814291
0.006701708 -0.04465032 0.1820554
0.00778389 -0.04501113 0.1820349
0.008866072 -0.04537192 0.1820143
-0.01788628 -0.04155058 0.1850032
-0.01649737 -0.04118061 0.1843354
-0.01573992 -0.04226616 0.1849625
-0.01466668 -0.04262394 0.1849421
-0.01391464 -0.04370767 0.1855692
-0.01252037 -0.04333952 0.1849014
-0.01112247 -0.04297256 0.1842334
-0.009720922 -0.04260677 0.1835654
-0.008644164 -0.04296577 0.183545
-0.006576896 -0.04115587 0.1815814
-0.005494714 -0.04151669 0.1815609
-0.004412472 -0.04187748 0.1815403
-0.002994716 -0.04151714 0.180872
-0.001910686 -0.04187852 0.1808515
-0.0001482964 -0.04080003 0.1795351
0.001280308 -0.0404433 0.1788666
0.002026916 -0.04152524 0.1794938
0.003114581 -0.04188785 0.1794732
0.004202187 -0.04225045 0.1794526
0.004941583 -0.04333004 0.18008
0.0060274 -0.04369205 0.1800594
0.006761432 -0.04476976 0.1806869
0.007845402 -0.04513115 0.1806663
0.008929431 -0.04549256 0.1806458
-0.01678753 -0.04201019 0.1836198
-0.0157125 -0.04236856 0.1835994
-0.01463759 -0.04272693 0.183579
-0.01356256 -0.04308534 0.1835586
-0.01248759 -0.04344374 0.1835382
-0.01076412 -0.04235542 0.1822203
-0.009685516 -0.04271501 0.1821998
-0.007623374 -0.04090807 0.1802327
-0.006539345 -0.04126948 0.1802121
-0.005455375 -0.04163086 0.1801916
-0.004371345 -0.04199228 0.180171
-0.002952218 -0.04163396 0.1795014
-0.001529515 -0.04127675 0.1788318
-0.0001031756 -0.04092082 0.178162
0.00132674 -0.04056609 0.1774923
0.002075672 -0.04164723 0.1781207
0.003509223 -0.04129368 0.1774509
0.00425458 -0.04237366 0.1780794
0.0049963 -0.04345241 0.1787079
0.006083906 -0.04381502 0.1786873
0.006820142 -0.04489198 0.179316
0.00790596 -0.04525399 0.1792954
-0.01644826 -0.04138979 0.1816046
-0.01568615 -0.04247376 0.182234
-0.0146094 -0.04283273 0.1822135
-0.01353258 -0.04319173 0.1821931
-0.01213384 -0.0428282 0.1815227
-0.01073146 -0.04246578 0.1808522
-0.009651065 -0.04282597 0.1808317
-0.008243322 -0.04246539 0.1801612
-0.006502748 -0.04138589 0.1788405
-0.005416989 -0.04174787 0.1788199
-0.004331112 -0.04210991 0.1787993
-0.002910733 -0.0417535 0.1781284
-0.001486659 -0.04139835 0.1774575
-5.90086e-05 -0.04104438 0.1767866
0.001372218 -0.04069167 0.1761156
0.002465248 -0.0410561 0.1760949
0.003901958 -0.04070514 0.1754237
0.004651368 -0.04178491 0.1760534
0.005744398 -0.04214931 0.1760326
0.006837487 -0.04251373 0.1760119
-0.01673937 -0.04222217 0.1808866
-0.01566076 -0.04258177 0.1808662
-0.01458216 -0.04294136 0.1808457
-0.01350355 -0.04330096 0.1808252
-0.0121035 -0.04293934 0.1801535
-0.01069987 -0.04257894 0.1794819
-0.009292603 -0.04221976 0.1788101
-0.007881641 -0.04186183 0.1781383
-0.006795883 -0.04222381 0.1781177
-0.005710006 -0.04258582 0.1780971
-0.004624248 -0.04294783 0.1780764
-0.002870202 -0.04187584 0.176753
-0.001444817 -0.04152268 0.1760809
-1.585484e-05 -0.04117078 0.1754087
0.001416683 -0.04082003 0.1747365
0.002511561 -0.04118505 0.1747157
0.003949583 -0.04083607 0.1740433
0.004701257 -0.04191506 0.1746742
0.005796134 -0.04228011 0.1746534
0.006891012 -0.0426451 0.1746326
0.009036958 -0.04087546 0.1726567
-0.01872462 -0.03835565 0.1769693
-0.01763701 -0.03871828 0.1769487
-0.01654935 -0.03908086 0.176928
-0.01640296 -0.04161009 0.1788641
-0.01563632 -0.04269248 0.1794959
-0.01455593 -0.04305267 0.1794754
-0.01315635 -0.04269248 0.1788025
-0.01207417 -0.0430533 0.178782
-0.01066917 -0.04269493 0.178109
-0.009260595 -0.04233775 0.1774361
-0.008174777 -0.04269975 0.1774155
-0.006760716 -0.04234433 0.1767423
-0.00567311 -0.04270697 0.1767217
-0.004585445 -0.04306954 0.176701
-0.002496958 -0.04128546 0.1747226
-0.001403928 -0.04164988 0.1747019
-0.0003108978 -0.0420143 0.1746811
0.001121163 -0.04166496 0.1740077
0.002216041 -0.04202998 0.1739869
0.003653586 -0.04168236 0.1733133
0.004405737 -0.04275998 0.1739453
0.005500615 -0.043125 0.1739246
0.006943583 -0.04277924 0.1732509
0.008739948 -0.04172456 0.1719242
-0.02010584 -0.0388324 0.176266
-0.01871037 -0.03847238 0.175592
-0.01793057 -0.03955761 0.1762247
-0.01684296 -0.03992021 0.1762041
-0.0157553 -0.04028282 0.1761834
-0.01529783 -0.04208583 0.1774697
-0.01453066 -0.04316685 0.1781027
-0.01312983 -0.04280865 0.1774286
-0.01204574 -0.04317003 0.177408
-0.01031721 -0.04209584 0.1760802
-0.009229541 -0.04245847 0.1760596
-0.007816017 -0.04210448 0.1753853
-0.006398857 -0.04175168 0.1747109
-0.00497812 -0.04140016 0.1740365
-0.003553748 -0.04104978 0.173362
-0.00245887 -0.0414148 0.1733412
-0.001363993 -0.04177982 0.1733204
-0.0002691746 -0.04214483 0.1732996
0.0008256435 -0.04250985 0.1732789
0.002260923 -0.04216307 0.1726041
0.003357589 -0.04252869 0.1725833
0.004454255 -0.0428943 0.1725625
0.005550861 -0.04325992 0.1725417
0.006647587 -0.04362553 0.1725209
0.007744193 -0.04399115 0.1725001
0.0095433 -0.0429405 0.1711709
-0.02039939 -0.03967172 0.175542
-0.0190044 -0.03931311 0.1748668
-0.01791501 -0.03967631 0.1748461
-0.0165146 -0.03931952 0.1741709
-0.0157361 -0.04040274 0.1748048
-0.01496124 -0.04148477 0.1754388
-0.01419002 -0.04256561 0.1760729
-0.0131042 -0.04292762 0.1760523
-0.01201838 -0.04328963 0.1760317
-0.0106107 -0.04293519 0.1753562
-0.0091995 -0.04258201 0.1746807
-0.007784665 -0.04223001 0.1740052
-0.006366193 -0.04187927 0.1733296
-0.005273104 -0.04224369 0.1733088
-0.003849268 -0.0418947 0.1726331
-0.002421737 -0.04154688 0.1719573
-0.001325071 -0.0419125 0.1719365
-0.000228405 -0.04227814 0.1719157
0.0008682013 -0.04264376 0.1718949
0.001964927 -0.04300937 0.1718741
0.003061533 -0.04337499 0.1718533
0.004158258 -0.0437406 0.1718325
0.005254865 -0.04410625 0.1718117
0.00635159 -0.04447186 0.1717909
0.007448196 -0.04483747 0.1717701
0.00924629 -0.0437896 0.1704385
-0.02008283 -0.03907022 0.1735066
-0.01899159 -0.03943402 0.1734859
-0.01790035 -0.03979784 0.1734652
-0.01680911 -0.04016167 0.1734445
-0.01571786 -0.04052547 0.1734238
-0.01494074 -0.04160669 0.1740589
-0.01416719 -0.0426867 0.1746942
-0.01307952 -0.04304931 0.1746735
-0.01231146 -0.04412758 0.1753089
-0.01090431 -0.04377455 0.1746322
-0.009170413 -0.04270834 0.1732995
-0.007754266 -0.04235837 0.1726227
-0.006661177 -0.04272279 0.172602
-0.005568147 -0.04308718 0.1725813
-0.004144788 -0.04273963 0.1719043
-0.00304991 -0.04310465 0.1718836
-0.001955032 -0.04346967 0.1718628
-0.0008602142 -0.04383469 0.171842
0.0005722046 -0.04349005 0.1711649
0.00166893 -0.04385567 0.1711441
0.002765536 -0.04422128 0.1711233
0.003862262 -0.04458693 0.1711025
0.004958868 -0.04495254 0.1710817
0.006055534 -0.04531816 0.1710609
0.0071522 -0.04568377 0.1710401
-0.0203774 -0.03991234 0.1727802
-0.01928616 -0.04027614 0.1727595
-0.01819491 -0.04063997 0.1727388
-0.01648366 -0.03956935 0.1714041
-0.01570064 -0.04065099 0.1720403
-0.01460755 -0.04101539 0.1720196
-0.01351452 -0.04137981 0.1719988
-0.0127387 -0.04245901 0.1726353
-0.01132846 -0.04210865 0.1719573
-0.009914577 -0.04175943 0.1712794
-0.008497059 -0.04141143 0.1706014
-0.007724881 -0.04248947 0.1712379
-0.006630003 -0.04285449 0.1712171
-0.005535126 -0.04321951 0.1711963
-0.004110396 -0.04287392 0.1705181
-0.00301373 -0.04323953 0.1704973
-0.001917124 -0.04360515 0.1704765
-0.0008203983 -0.04397076 0.1704557
0.0006133318 -0.04362822 0.1697773
0.001711786 -0.04399443 0.1697565
0.00383234 -0.04223973 0.1677629
0.003908753 -0.04472688 0.1697148
0.005007207 -0.04509309 0.169694
0.006105661 -0.04545933 0.1696731
0.006856203 -0.0465301 0.17031
-0.01646972 -0.03969839 0.170017
-0.01568437 -0.04077929 0.1706545
-0.01458949 -0.04114431 0.1706337
-0.01380956 -0.04222333 0.1712712
-0.01239979 -0.04187432 0.1705921
-0.01130497 -0.04223934 0.1705714
-0.009889722 -0.04189211 0.1698921
-0.008793056 -0.04225773 0.1698713
-0.00769639 -0.04262334 0.1698505
-0.006273985 -0.04227859 0.1691712
-0.005503058 -0.04335457 0.1698089
-0.004406452 -0.04372019 0.1697881
-0.003309727 -0.04408583 0.1697673
-0.00221312 -0.04445145 0.1697465
-0.001116395 -0.04481706 0.1697257
0.001326621 -0.04235554 0.16707
0.002430499 -0.0427236 0.1670491
0.00361222 -0.04557458 0.1689836
0.004710674 -0.04594079 0.1689628
0.005809188 -0.04630703 0.1689419
-0.01755512 -0.03946409 0.1686484
-0.01676571 -0.04054469 0.169287
-0.01566905 -0.0409103 0.1692662
-0.01457238 -0.04127595 0.1692454
-0.01379013 -0.04235423 0.1698841
-0.01237905 -0.04200718 0.1692038
-0.01128238 -0.04237279 0.169183
-0.00986588 -0.04202762 0.1685025
-0.008767366 -0.04239386 0.1684817
-0.007345438 -0.04205045 0.1678011
-0.006245196 -0.04241729 0.1677803
-0.005144954 -0.04278409 0.1677594
-0.003386855 -0.04173532 0.166419
-0.003275037 -0.04422495 0.1683775
-0.002176642 -0.04459119 0.1683566
-0.001078129 -0.0449574 0.1683358
0.001700878 -0.04179659 0.1650153
0.003146291 -0.04146102 0.1643343
0.004595339 -0.0411267 0.1636533
0.005706429 -0.04149714 0.1636322
-0.0167532 -0.04067799 0.1678964
-0.01596504 -0.04175663 0.1685362
-0.01455623 -0.04141045 0.1678547
-0.01345778 -0.04177666 0.1678338
-0.01299083 -0.04356414 0.1691345
-0.01157838 -0.04321909 0.1684529
-0.009842992 -0.04216591 0.1671105
-0.00874275 -0.04253271 0.1670896
-0.007642448 -0.04289955 0.1670687
-0.006542206 -0.04326636 0.1670479
-0.005441904 -0.04363319 0.167027
-0.003684878 -0.04258722 0.1656841
-0.00324136 -0.04436684 0.1669852
-0.002473116 -0.04543889 0.1676254
-0.001374602 -0.0458051 0.1676046
0.002073228 -0.04124328 0.1629558
0.0035218 -0.04091027 0.1622735
0.004634738 -0.04128131 0.1622524
0.006088674 -0.04095015 0.1615701
0.0072034 -0.04132178 0.1615489
-0.01722944 -0.03902274 0.1652007
-0.01674163 -0.04081404 0.1665033
-0.01595122 -0.04189193 0.1671443
-0.01454109 -0.04154769 0.1664616
-0.01344085 -0.04191452 0.1664407
-0.01234055 -0.04228133 0.1664198
-0.01124024 -0.04264817 0.1663989
-0.009502232 -0.04159895 0.1650541
-0.008398354 -0.04196697 0.1650331
-0.007294476 -0.042335 0.1650122
-0.005866289 -0.04199678 0.164329
-0.00508666 -0.04307106 0.1649702
-0.002999067 -0.04132399 0.1629627
-0.001560032 -0.04098943 0.1622794
-0.0004489422 -0.04135987 0.1622583
0.0009955168 -0.04102707 0.1615749
0.002108455 -0.04139811 0.1615538
0.003221393 -0.04176915 0.1615327
0.004673064 -0.04143876 0.1608492
0.00578779 -0.04181039 0.160828
0.007244885 -0.04148182 0.1601444
0.008361399 -0.04185408 0.1601232
-0.01722169 -0.03916374 0.1638028
-0.01642352 -0.04024267 0.1644449
-0.01593834 -0.04202998 0.16575
-0.0148381 -0.04239678 0.1657292
-0.0137378 -0.04276362 0.1657083
-0.0126375 -0.04313046 0.1656874
-0.01090407 -0.04208279 0.1643402
-0.009800196 -0.04245085 0.1643192
-0.008376122 -0.0421128 0.163635
-0.007270396 -0.04248142 0.163614
-0.005840898 -0.04214522 0.1629297
-0.004407763 -0.04181021 0.1622453
-0.003298461 -0.04218006 0.1622243
-0.001530707 -0.04114383 0.1608763
-0.000417769 -0.04151487 0.1608552
0.0006951094 -0.04188591 0.1608341
0.002142727 -0.04155573 0.1601495
0.003257453 -0.04192737 0.1601283
0.00437218 -0.042299 0.1601071
0.005486906 -0.04267067 0.160086
0.006943464 -0.0423435 0.1594011
0.008060038 -0.04271573 0.15938
0.009176612 -0.04308796 0.1593588
-0.0169096 -0.03859812 0.1617384
-0.0164144 -0.04038566 0.1630458
-0.01561761 -0.0414626 0.1636891
-0.01451373 -0.0418306 0.1636682
-0.01340985 -0.04219866 0.1636472
-0.01230592 -0.04256666 0.1636263
-0.01120204 -0.04293469 0.1636053
-0.009780228 -0.04259744 0.1629199
-0.008674502 -0.04296607 0.1628989
-0.007568836 -0.04333469 0.1628779
-0.005816519 -0.04229647 0.1615279
-0.004707217 -0.04266629 0.1615069
-0.003270984 -0.0423339 0.1608212
-0.001831114 -0.04200268 0.1601354
-0.0007181764 -0.04237372 0.1601143
0.0007271171 -0.04204434 0.1594286
0.001841843 -0.04241598 0.1594074
0.002956569 -0.04278761 0.1593862
0.004409075 -0.04246062 0.1587003
0.005525589 -0.04283288 0.1586791
0.006642103 -0.04320511 0.1586579
0.007758677 -0.04357737 0.1586367
0.008875191 -0.0439496 0.1586156
-0.01801538 -0.03837568 0.1603557
-0.01720905 -0.03945416 0.161
-0.01671284 -0.04123893 0.1623098
-0.01560712 -0.04160756 0.1622888
-0.01450145 -0.04197621 0.1622678
-0.01339579 -0.04234481 0.1622468
-0.01229006 -0.04271346 0.1622258
-0.01118433 -0.04308209 0.1622049
-0.01007867 -0.04345071 0.1621839
-0.008973002 -0.04381934 0.1621629
-0.007546246 -0.04348534 0.1614762
-0.006115913 -0.04315251 0.1607895
-0.004681945 -0.04282093 0.1601027
-0.003570855 -0.04319137 0.1600816
-0.002131462 -0.04286152 0.1593946
-0.0006884933 -0.04253295 0.1587077
0.0004262328 -0.04290459 0.1586865
0.001874626 -0.0425778 0.1579994
0.002991199 -0.04295003 0.1579782
0.004444957 -0.04262507 0.1572911
0.005563319 -0.04299793 0.1572698
0.006681681 -0.04337078 0.1572486
0.007799983 -0.04374361 0.1572274
0.008918345 -0.04411647 0.1572062
0.01003671 -0.04448932 0.1571849
-0.01831526 -0.03923315 0.1596161
-0.01720417 -0.03960359 0.159595
-0.01670521 -0.04138613 0.1609071
-0.0155977 -0.04175538 0.1608861
-0.01449019 -0.0421246 0.1608651
-0.01369417 -0.04319811 0.1615108
-0.01227522 -0.04286307 0.160823
-0.01116771 -0.04323229 0.160802
-0.01006019 -0.04360154 0.160781
-0.008633971 -0.04326892 0.1600932
-0.007524669 -0.04363874 0.1600721
-0.006093025 -0.04330796 0.1593841
-0.004981875 -0.0436784 0.1593631
-0.003544807 -0.04334936 0.1586749
-0.00243187 -0.04372039 0.1586538
-0.0009893775 -0.04339319 0.1579656
0.0007880926 -0.0423696 0.1566103
0.001573265 -0.04343945 0.1572562
0.003359795 -0.04241884 0.1559006
0.004479885 -0.04279229 0.1558794
0.005600095 -0.04316574 0.1558581
0.006720185 -0.0435392 0.1558369
0.007840395 -0.04391265 0.1558156
0.008960485 -0.0442861 0.1557944
0.009734809 -0.04535237 0.1564405
-0.01891714 -0.04079646 0.1595442
-0.0187192 -0.04328218 0.1615266
-0.01700413 -0.0422408 0.1601699
-0.01589662 -0.04261005 0.1601489
-0.0147891 -0.04297927 0.1601278
-0.01368165 -0.04334852 0.1601068
-0.01226127 -0.04301548 0.1594179
-0.01146662 -0.04408699 0.1600648
-0.01004267 -0.04375514 0.1593758
-0.008615136 -0.04342455 0.1586867
-0.007503986 -0.04379499 0.1586656
-0.006392896 -0.04416543 0.1586445
-0.005281806 -0.04453588 0.1586234
-0.003845215 -0.04420823 0.1579341
-0.002732277 -0.04457927 0.1579129
-0.001290262 -0.04425344 0.1572236
0.0004862547 -0.04323262 0.1558658
0.00193727 -0.04290983 0.1551763
0.00305742 -0.04328328 0.155155
0.00417757 -0.04365674 0.1551337
0.00529772 -0.04403019 0.1551125
0.006417871 -0.04440364 0.1550912
0.007538021 -0.0447771 0.15507
0.008658171 -0.04515052 0.1550487
-0.01699793 -0.04239219 0.1587636
-0.01588863 -0.04276204 0.1587426
-0.01447064 -0.04242983 0.1580524
-0.01367003 -0.0435017 0.1587005
-0.0122484 -0.04317069 0.1580103
-0.01113725 -0.04354113 0.1579892
-0.01002616 -0.04391158 0.1579681
-0.008915067 -0.04428202 0.157947
-0.007484317 -0.04395396 0.1572566
-0.006371439 -0.04432499 0.1572355
-0.005258501 -0.04469603 0.1572143
-0.004145622 -0.04506707 0.1571932
-0.003032684 -0.04543811 0.1571721
-0.001591146 -0.04511368 0.1564816
0.0005147457 -0.04340082 0.1544518
0.001634955 -0.04377425 0.1544306
0.003423154 -0.0427604 0.1530702
0.003875256 -0.04452115 0.1543881
0.004995346 -0.04489461 0.1543668
0.006794453 -0.04388437 0.1530062
0.007235646 -0.04564151 0.1543243
0.008355856 -0.04601496 0.1543031
-0.01729739 -0.04324827 0.1580252
-0.01557517 -0.04221553 0.1566636
-0.01446223 -0.04258657 0.1566424
-0.01334935 -0.0429576 0.1566213
-0.01223648 -0.04332864 0.1566002
-0.01112354 -0.04369968 0.1565791
-0.0100106 -0.04407072 0.156558
-0.008897662 -0.04444176 0.1565369
-0.007784724 -0.0448128 0.1565157
-0.006671786 -0.04518384 0.1564946
-0.005558908 -0.04555488 0.1564735
-0.00444597 -0.04592592 0.1564524
-0.003333092 -0.04629695 0.1564313
-0.00189203 -0.04597396 0.1557395
0.00199604 -0.04325297 0.1523434
0.003453374 -0.04293537 0.1516513
0.004243612 -0.04400229 0.1523008
0.004693031 -0.04575905 0.1536212
0.005813181 -0.0461325 0.1535999
0.006933331 -0.04650593 0.1535787
-0.01526368 -0.04167461 0.1545798
-0.01414716 -0.04204684 0.1545586
-0.01303065 -0.04241908 0.1545374
-0.01191413 -0.04279134 0.1545162
-0.01079756 -0.04316357 0.1544951
-0.009681046 -0.04353583 0.1544739
-0.008564472 -0.04390806 0.1544527
-0.007447958 -0.04428032 0.1544315
-0.001992822 -0.0380801 0.1476713
-0.0008582473 -0.03845838 0.1476498
0.0002763271 -0.03883663 0.1476282
0.001083314 -0.03990757 0.1482786
0.002216101 -0.04028523 0.1482571
0.003348947 -0.04066288 0.1482356
0.004481673 -0.04104057 0.1482141
0.005614519 -0.04141822 0.1481926
0.007083952 -0.04110622 0.1474991
0.008557022 -0.04079548 0.1468054
-0.01525962 -0.04183778 0.1531639
-0.01414132 -0.04221061 0.1531427
-0.01302296 -0.04258347 0.1531215
-0.0119046 -0.04295632 0.1531003
-0.01078629 -0.04332915 0.153079
-0.009353399 -0.04300651 0.1523849
-0.008233309 -0.04337996 0.1523637
-0.003753603 -0.03927109 0.1476105
-0.00229907 -0.03895569 0.146916
-0.001164496 -0.03933394 0.1468945
-2.992153e-05 -0.03971222 0.146873
0.001104712 -0.0400905 0.1468515
0.002239347 -0.04046875 0.1468299
0.003043175 -0.04153708 0.1474815
0.004175961 -0.04191476 0.14746
0.005643129 -0.04160357 0.1467653
0.007113874 -0.04129359 0.1460705
0.008250296 -0.04167247 0.146049
0.009386718 -0.04205135 0.1460274
-0.01546717 -0.03953713 0.1497453
-0.01464653 -0.04060948 0.1503978
-0.01413637 -0.04237714 0.1517243
-0.01301622 -0.0427506 0.1517031
-0.01189607 -0.04312405 0.1516818
-0.01077592 -0.0434975 0.1516606
-0.009655774 -0.04387096 0.1516393
-0.007903993 -0.04285741 0.1502699
-0.004059374 -0.04014528 0.1468564
-0.002926588 -0.04052296 0.1468349
-0.001470745 -0.04020953 0.1461392
-0.0003361702 -0.04058781 0.1461177
0.0007984638 -0.04096609 0.1460962
0.001933098 -0.04134434 0.1460747
0.003067672 -0.04172263 0.1460531
0.004202247 -0.04210088 0.1460316
0.005336881 -0.04247916 0.14601
0.006807148 -0.04217058 0.1453141
0.007943571 -0.04254943 0.1452925
0.009079933 -0.04292831 0.1452709
-0.0154683 -0.03970945 0.148321
-0.0146454 -0.04078102 0.1489747
-0.01443875 -0.04324159 0.1509787
-0.01331854 -0.04361504 0.1509574
-0.01219845 -0.0439885 0.1509362
-0.01045483 -0.04297534 0.1495644
-0.009017587 -0.04265729 0.1488678
-0.007576704 -0.04234046 0.1481712
-0.005497932 -0.04064181 0.1461239
-0.004365087 -0.0410195 0.1461024
-0.002911568 -0.04070687 0.1454055
-0.001776993 -0.04108512 0.145384
-0.0006424189 -0.0414634 0.1453624
0.0008183718 -0.04115319 0.1446654
0.001954794 -0.04153207 0.1446438
0.003091216 -0.04191095 0.1446223
0.004227638 -0.04228982 0.1446007
0.005364001 -0.0426687 0.1445792
0.007170796 -0.04167658 0.1432062
0.008310854 -0.04205665 0.1431846
0.009450853 -0.04243672 0.143163
-0.01629925 -0.03881255 0.1462394
-0.01547039 -0.03988454 0.1468943
-0.01464522 -0.04095531 0.1475492
-0.01382363 -0.04202488 0.148204
-0.01300567 -0.04309323 0.148859
-0.01157248 -0.04277539 0.1481613
-0.01044691 -0.04315063 0.14814
-0.009008348 -0.04283461 0.1474422
-0.007566154 -0.04251975 0.1467443
-0.005487025 -0.0408259 0.1446933
-0.00435245 -0.04120418 0.1446717
-0.003217816 -0.04158244 0.1446502
-0.001761198 -0.04127246 0.1439521
-0.0006247759 -0.04165131 0.1439305
0.0005116463 -0.04203019 0.1439089
0.001648068 -0.04240906 0.1438874
0.002784491 -0.04278794 0.1438658
0.003920853 -0.04316682 0.1438442
0.005057275 -0.04354566 0.1438227
0.006863117 -0.04255635 0.1424474
0.008003116 -0.04293644 0.1424257
0.009143174 -0.04331651 0.1424041
0.01028317 -0.04369658 0.1423825
-0.01660448 -0.03968534 0.1454866
-0.0157752 -0.04075593 0.1461426
-0.01494956 -0.04182529 0.1467987
-0.01382214 -0.04220116 0.1467773
-0.01269478 -0.04257703 0.1467559
-0.01156741 -0.0429529 0.1467345
-0.01043999 -0.04332876 0.1467131
-0.009000123 -0.04301471 0.1460141
-0.007242203 -0.04201254 0.1446372
-0.006109416 -0.0423902 0.1446157
-0.004658699 -0.04207975 0.1439165
-0.003524065 -0.04245803 0.1438949
-0.002067924 -0.04214942 0.1431956
-0.0009315014 -0.0425283 0.143174
0.0002049208 -0.04290718 0.1431525
0.001995325 -0.04191583 0.141775
0.002477765 -0.0436649 0.1431093
0.003614128 -0.04404378 0.1430878
0.00541538 -0.04305604 0.1417101
0.006555438 -0.04343611 0.1416885
0.007695436 -0.04381621 0.1416669
0.008835435 -0.04419628 0.1416452
-0.01631093 -0.03917268 0.1433765
-0.01577878 -0.04093519 0.1447123
-0.01495081 -0.04200381 0.1453695
-0.01412642 -0.04307118 0.1460268
-0.01269245 -0.04275671 0.1453267
-0.01156324 -0.04313317 0.1453052
-0.01043409 -0.04350963 0.1452838
-0.008992791 -0.04319757 0.1445835
-0.007234097 -0.04219881 0.1432043
-0.006099522 -0.04257709 0.1431828
-0.004964948 -0.04295534 0.1431612
-0.003830314 -0.04333362 0.1431397
-0.002374649 -0.04302642 0.1424391
-0.001238227 -0.04340529 0.1424176
0.0005475879 -0.04241553 0.1410378
0.001687646 -0.0427956 0.1410161
0.00217098 -0.0445419 0.1423529
0.003967643 -0.04355574 0.1409729
0.005439579 -0.04325393 0.140272
0.006915152 -0.04295334 0.1395711
0.008058786 -0.04333463 0.1395494
0.008527756 -0.04507604 0.1408863
-0.01631826 -0.03935695 0.1419414
-0.0154826 -0.04042652 0.1425997
-0.01434803 -0.0408048 0.1425782
-0.01412642 -0.04325166 0.1445965
-0.01299721 -0.04362813 0.144575
-0.011868 -0.04400459 0.1445536
-0.01042908 -0.0436933 0.1438521
-0.008986533 -0.04338324 0.1431506
-0.007540345 -0.0430744 0.142449
-0.006405771 -0.04345268 0.1424275
-0.004954219 -0.04314566 0.1417258
-0.003817797 -0.04352453 0.1417042
-0.002681375 -0.04390338 0.1416827
-0.0009001493 -0.04291523 0.1403005
0.0002398491 -0.04329529 0.1402789
0.001379907 -0.04367536 0.1402572
0.002519906 -0.04405543 0.1402356
0.003989577 -0.0437544 0.1395336
0.005462825 -0.04345462 0.1388315
0.00627321 -0.04451576 0.1394902
0.007415056 -0.04489645 0.1394686
-0.01687157 -0.03778338 0.1391635
-0.01662505 -0.04023394 0.1411849
-0.01578885 -0.04130211 0.1418444
-0.01465422 -0.0416804 0.1418229
-0.01351964 -0.04205865 0.1418014
-0.01238501 -0.0424369 0.1417798
-0.01125044 -0.04281518 0.1417583
-0.01011586 -0.04319346 0.1417368
-0.008981228 -0.04357171 0.1417153
-0.007533729 -0.0432649 0.1410124
-0.006397367 -0.04364377 0.1409909
-0.005260944 -0.04402262 0.1409693
-0.003487885 -0.04303482 0.1395849
-0.002347887 -0.04341489 0.1395633
-0.0008859634 -0.04311287 0.1388602
0.0005795956 -0.04281205 0.138157
0.001397729 -0.04387423 0.1388168
0.002539515 -0.0442549 0.1387952
0.004010499 -0.04395589 0.1380919
0.005154133 -0.04433718 0.1380702
0.006297827 -0.04471844 0.1380485
0.007441401 -0.04509974 0.1380268
-0.01717973 -0.03866455 0.1384034
-0.01633584 -0.03973377 0.139064
-0.01579535 -0.04148978 0.1404069
-0.01465893 -0.04186866 0.1403853
-0.01352251 -0.04224753 0.1403638
-0.01238608 -0.04262638 0.1403422
-0.01124966 -0.04300526 0.1403207
-0.0101133 -0.04338413 0.1402991
-0.008976877 -0.04376301 0.1402775
-0.007215679 -0.04277438 0.1388909
-0.005761445 -0.04247132 0.1381868
-0.004619598 -0.04285198 0.1381651
-0.00316 -0.04255077 0.1374608
-0.002335966 -0.04361334 0.1381218
-0.0008727312 -0.04331335 0.1374174
0.0002709627 -0.04369462 0.1373957
0.001414537 -0.04407591 0.137374
0.002558231 -0.0444572 0.1373523
0.003701806 -0.04483846 0.1373306
0.0048455 -0.04521975 0.1373089
0.005989075 -0.04560101 0.1372872
0.007132769 -0.0459823 0.1372655
-0.01833594 -0.03847671 0.1369816
-0.01748794 -0.03954571 0.1376433
-0.0163461 -0.03992638 0.1376217
-0.01610208 -0.04236677 0.1396504
-0.01496565 -0.04274565 0.1396289
-0.01382923 -0.0431245 0.1396073
-0.01269281 -0.04350337 0.1395857
-0.01155645 -0.04388225 0.1395642
-0.009803414 -0.04289401 0.1381753
-0.008663416 -0.04327407 0.1381537
-0.007211447 -0.04297179 0.1374483
-0.00606966 -0.04335248 0.1374267
-0.004612327 -0.04305208 0.1367212
-0.003468633 -0.04343334 0.1366995
-0.002325058 -0.04381463 0.1366778
-0.001181364 -0.04419589 0.1366561
0.0002849698 -0.04389846 0.1359505
0.001105905 -0.04495847 0.1366127
0.001923144 -0.04601723 0.137275
0.003393173 -0.04572102 0.1365693
0.004536748 -0.04610229 0.1365476
0.005680442 -0.04648358 0.1365259
-0.01835126 -0.0386723 0.1355358
-0.017501 -0.03974056 0.1361986
-0.0163573 -0.04012182 0.1361769
-0.01551247 -0.04118824 0.1368399
-0.01437068 -0.04156891 0.1368183
-0.01322883 -0.0419496 0.1367966
-0.01208699 -0.04233027 0.1367749
-0.01094514 -0.04271096 0.1367533
-0.009495497 -0.04240951 0.1360467
-0.008351922 -0.0427908 0.136025
-0.007208228 -0.04317206 0.1360033
-0.005751371 -0.042873 0.1352967
-0.004605949 -0.04325488 0.135275
-0.003143668 -0.0429576 0.1345682
-0.002315044 -0.04401866 0.1352315
-0.0008491278 -0.04372257 0.1345247
-2.419949e-05 -0.0447824 0.135188
0.001121283 -0.04516429 0.1351663
0.002266705 -0.04554617 0.1351446
0.003084421 -0.04660359 0.1358081
0.004228115 -0.04698485 0.1357864
-0.0195148 -0.03848815 0.1341093
-0.01866043 -0.03955626 0.1347733
-0.01780963 -0.0406231 0.1354374
-0.01666605 -0.04100439 0.1354157
-0.01552236 -0.04138568 0.135394
-0.01437879 -0.04176694 0.1353723
-0.01323509 -0.04214823 0.1353506
-0.01209152 -0.04252952 0.1353289
-0.01094782 -0.04291078 0.1353072
-0.009804249 -0.04329208 0.1352855
-0.008351445 -0.04299319 0.1345777
-0.007206023 -0.04337507 0.134556
-0.0060606 -0.04375696 0.1345342
-0.004600585 -0.04346046 0.1338263
-0.003453314 -0.04384294 0.1338045
-0.001351595 -0.04219404 0.131724
-0.001158834 -0.04460791 0.133761
-1.15633e-05 -0.04499039 0.1337392
0.0008120537 -0.04604825 0.1344038
0.001957536 -0.04643011 0.1343821
-0.01953387 -0.03868872 0.1326587
-0.01838481 -0.0390718 0.1326368
-0.01752996 -0.04013848 0.1333021
-0.01638269 -0.04052097 0.1332803
-0.01523548 -0.04090345 0.1332585
-0.01438785 -0.04196775 0.1339239
-0.01324236 -0.04234961 0.1339022
-0.01240015 -0.04341206 0.1345676
-0.01095152 -0.04311338 0.1338587
-0.009806037 -0.04349527 0.133837
-0.008660614 -0.04387715 0.1338152
-0.007204711 -0.04358083 0.1331061
-0.006057501 -0.04396331 0.1330844
-0.004910231 -0.0443458 0.1330626
-0.002815366 -0.04269928 0.1309786
-0.001662731 -0.04308358 0.1309567
-0.0005100965 -0.04346785 0.1309349
0.0006425977 -0.04385215 0.130913
-0.01984406 -0.03957546 0.1318938
-0.018695 -0.03995857 0.131872
-0.01783961 -0.04102382 0.1325384
-0.0166924 -0.0414063 0.1325166
-0.01554513 -0.04178879 0.1324948
-0.01439786 -0.04217127 0.1324731
-0.01355159 -0.04323357 0.1331397
-0.01240611 -0.04361546 0.1331179
-0.01126069 -0.04399735 0.1330962
-0.009808898 -0.04370123 0.132386
-0.008661628 -0.04408371 0.1323642
-0.007514358 -0.0444662 0.1323425
-0.006367147 -0.04484868 0.1323207
-0.004906297 -0.0445556 0.1316103
-0.003126502 -0.04358882 0.1302113
-0.001973867 -0.04397309 0.1301894
-0.0005021691 -0.04368362 0.1294788
-0.01900512 -0.0408453 0.1311071
-0.01785606 -0.04122838 0.1310853
-0.01700205 -0.04229167 0.1317529
-0.015558 -0.04199457 0.1310417
-0.01470757 -0.04305664 0.1317094
-0.0135603 -0.04343912 0.1316876
-0.01241302 -0.0438216 0.1316658
-0.01096177 -0.04352689 0.1309544
-0.009812713 -0.04391 0.1309327
-0.008663654 -0.04429308 0.1309108
-0.007514596 -0.04467615 0.130889
-0.006365538 -0.04505926 0.1308672
-0.004590273 -0.04409406 0.1294659
-0.003437638 -0.04447836 0.129444
-0.001968265 -0.04418963 0.1287322
-0.0008137822 -0.04457453 0.1287103
-0.0187335 -0.04037207 0.1289611
-0.01816618 -0.04211512 0.1303204
-0.01701713 -0.04249823 0.1302986
-0.01586813 -0.04288131 0.1302768
-0.01471907 -0.04326439 0.130255
-0.01357001 -0.04364747 0.1302332
-0.01242095 -0.04403055 0.1302114
-0.01127189 -0.04441366 0.1301896
-0.009512126 -0.04344642 0.1287861
-0.008973777 -0.04517981 0.130146
-0.007206798 -0.04421499 0.1287423
-0.006054103 -0.04459929 0.1287205
-0.004901409 -0.04498357 0.1286986
-0.00343436 -0.04469568 0.1279856
-0.002279878 -0.04508057 0.1279637
-0.01904458 -0.04126161 0.1281938
-0.01789188 -0.04164591 0.1281719
-0.01673925 -0.04203019 0.12815
-0.01558656 -0.04241449 0.1281281
-0.01502919 -0.04415113 0.1294901
-0.01388013 -0.04453421 0.1294683
-0.01212859 -0.04356736 0.1280625
-0.0109759 -0.04395166 0.1280406
-0.009823203 -0.04433593 0.1280188
-0.0092839 -0.04606658 0.1293811
-0.00720942 -0.04443192 0.1272829
-0.006054878 -0.04481682 0.127261
-0.004900455 -0.04520172 0.127239
-0.003745973 -0.04558659 0.1272171
-0.01935571 -0.04215115 0.1274264
-0.01820302 -0.04253542 0.1274046
-0.01705039 -0.04291973 0.1273827
-0.01589769 -0.04330403 0.1273609
-0.014745 -0.0436883 0.127339
-0.01359236 -0.0440726 0.1273171
-0.01243973 -0.0444569 0.1272952
-0.01098442 -0.04416817 0.1265801
-0.009829938 -0.04455304 0.1265582
-0.008981705 -0.04560977 0.1272296
-0.00782901 -0.04599404 0.1272077
-0.006366491 -0.04570773 0.1264924
-0.005212069 -0.04609263 0.1264705
-0.01851416 -0.04342496 0.1266373
-0.01706839 -0.0431346 0.1259211
-0.01591396 -0.0435195 0.1258992
-0.01475942 -0.04390439 0.1258773
-0.013605 -0.04428929 0.1258554
-0.01245052 -0.04467419 0.1258335
-0.01159811 -0.04573071 0.1265061
-0.01014155 -0.04544398 0.1257897
-0.008987069 -0.04582888 0.1257678
-0.008140147 -0.04688358 0.1264404
0.004410863 -0.04025561 0.1165605
0.00558883 -0.04064834 0.1165381
-0.01738 -0.04402554 0.1251526
-0.01593113 -0.04373783 0.1244352
-0.01477492 -0.04412335 0.1244133
-0.01391661 -0.0451802 0.1250869
-0.01276213 -0.0455651 0.125065
-0.01160765 -0.04595 0.1250431
-0.01045316 -0.04633489 0.1250212
-0.009298682 -0.04671979 0.1249993
0.002914965 -0.04077196 0.1157987
0.004092932 -0.04116467 0.1157764
0.005270898 -0.0415574 0.115754
0.006448865 -0.04195011 0.1157317
-0.01624328 -0.04463017 0.1236655
-0.01479125 -0.04434505 0.1229469
-0.01363319 -0.04473114 0.1229249
-0.01277441 -0.04578665 0.1235997
-0.01161814 -0.04617214 0.1235778
-0.01076478 -0.04722583 0.1242527
-0.009610295 -0.0476107 0.1242308
0.001419067 -0.04128829 0.1150369
0.002914429 -0.04101759 0.1143174
0.004094183 -0.04141092 0.114295
0.005273938 -0.04180425 0.1142727
0.006453753 -0.04219756 0.1142502
0.007633448 -0.04259089 0.1142279
-0.0130865 -0.04667896 0.12283
-0.01193023 -0.04706448 0.1228081
0.001416206 -0.04153469 0.1135545
0.002595961 -0.04192802 0.1135321
0.003775716 -0.04232135 0.1135097
0.00495553 -0.04271469 0.1134873
0.006135285 -0.04310802 0.1134649
0.00731504 -0.04350132 0.1134425
-0.001823187 -0.03993917 0.1114375
-0.0006397963 -0.04033372 0.1114151
0.0005435944 -0.04072824 0.1113926
0.002041578 -0.04046157 0.1106706
0.003226757 -0.04085672 0.1106481
0.004411936 -0.04125184 0.1106257
0.005277097 -0.04230636 0.1113028
0.007104158 -0.04138336 0.109881
0.008291125 -0.04177907 0.1098585
-0.004204273 -0.03940052 0.1099941
-0.003019094 -0.03979567 0.1099716
-0.001833916 -0.04019079 0.1099491
-0.000648737 -0.04058594 0.1099266
0.0005364418 -0.04098105 0.1099042
0.002035737 -0.04071641 0.109181
0.003222764 -0.04111215 0.1091585
0.00440979 -0.0415079 0.109136
0.005277216 -0.04256159 0.1098142
0.006462395 -0.04295671 0.1097917
0.00797075 -0.04269511 0.1090684
-0.004524171 -0.04031515 0.1092052
-0.003338993 -0.0407103 0.1091827
-0.002153814 -0.04110542 0.1091602
-0.0006586313 -0.04084098 0.1084359
0.0005283952 -0.0412367 0.1084134
0.002029002 -0.04097399 0.1076889
0.003217816 -0.04137033 0.1076663
0.004406631 -0.04176667 0.1076438
0.005276382 -0.04281965 0.1083233
0.006463349 -0.04321539 0.1083007
0.007973015 -0.0429557 0.1075761
-0.007214427 -0.04043952 0.1084612
-0.006029248 -0.04083464 0.1084387
-0.004844069 -0.04122978 0.1084162
-0.003658891 -0.0416249 0.1083938
-0.002166033 -0.04136127 0.1076683
-0.0006694794 -0.04109874 0.1069427
0.0005193353 -0.04149508 0.1069201
0.00170815 -0.0418914 0.1068976
0.003526807 -0.04097492 0.1054687
0.004719257 -0.04137248 0.1054461
0.005274534 -0.04308042 0.1068299
0.006463349 -0.04347676 0.1068073
0.00829649 -0.04256508 0.1053782
-0.007534385 -0.04135415 0.1076723
-0.006047368 -0.04109007 0.1069457
-0.004860401 -0.04148579 0.1069232
-0.003673375 -0.04188153 0.1069006
-0.002179146 -0.04161981 0.1061739
-0.0009903312 -0.04201615 0.1061513
0.0008201599 -0.04110003 0.1047202
0.002012551 -0.04149759 0.1046976
0.003519416 -0.04124013 0.1039706
0.004713655 -0.04163828 0.1039479
0.005907893 -0.04203641 0.1039252
0.007102132 -0.04243457 0.1039026
0.008296311 -0.0428327 0.1038799
0.00949055 -0.04323086 0.1038572
-0.01378024 -0.0402931 0.1069958
-0.01259506 -0.04068822 0.1069733
-0.01140982 -0.04108337 0.1069508
-0.01022464 -0.04147851 0.1069283
-0.009039462 -0.04187363 0.1069058
-0.00755477 -0.04161036 0.1061781
-0.006367743 -0.04200608 0.1061555
-0.004877627 -0.04174453 0.1054277
-0.003688812 -0.0421409 0.1054051
-0.001886547 -0.04122517 0.1039717
-0.0003855824 -0.04096729 0.1032436
0.0008086562 -0.04136544 0.1032209
0.002002895 -0.04176357 0.1031983
0.003511071 -0.04150808 0.10247
0.004391313 -0.04255986 0.1031529
0.005585551 -0.04295802 0.1031303
0.00677979 -0.04335615 0.1031076
0.007973969 -0.04375431 0.103085
0.009168208 -0.04415244 0.1030623
-0.01499712 -0.04015195 0.105523
-0.01410007 -0.04120773 0.1062068
-0.01262313 -0.04094344 0.105478
-0.0114361 -0.04133916 0.1054555
-0.01054454 -0.04239315 0.1061394
-0.009062171 -0.04213065 0.1054105
-0.007875144 -0.04252636 0.1053879
-0.006387293 -0.04226562 0.1046588
-0.004593253 -0.04135028 0.1032232
-0.003400803 -0.04174781 0.1032006
-0.001902103 -0.04149073 0.1024713
-0.000399828 -0.04123482 0.1017419
0.0007961988 -0.04163355 0.1017192
0.001680553 -0.04268518 0.1024033
0.003188252 -0.04243106 0.1016738
0.004384279 -0.04282981 0.1016512
0.005263209 -0.04387963 0.1023353
0.006457448 -0.04427776 0.1023127
0.007330954 -0.0453257 0.1029969
0.008523345 -0.04572323 0.1029743
-0.0162186 -0.04001233 0.104048
-0.0153175 -0.04106799 0.1047329
-0.01413047 -0.04146373 0.1047104
-0.01294351 -0.04185945 0.1046879
-0.01175654 -0.04225519 0.1046653
-0.01056951 -0.04265094 0.1046428
-0.009382486 -0.04304665 0.1046203
-0.00789696 -0.04278672 0.1038901
-0.006708145 -0.04318303 0.1038675
-0.004612923 -0.04161605 0.1017216
-0.003418684 -0.04201418 0.101699
-0.001918674 -0.04175907 0.1009685
-0.0007226467 -0.0421578 0.1009458
0.0004733801 -0.04255655 0.1009231
0.001669407 -0.04295531 0.1009004
0.003178418 -0.04270321 0.1001697
0.00406146 -0.04375279 0.100855
0.005257487 -0.04415154 0.1008323
0.006453514 -0.0445503 0.1008096
0.007009089 -0.0462459 0.1022032
-0.01716107 -0.03921524 0.1018619
-0.01653945 -0.04092976 0.1032566
-0.01563787 -0.04198399 0.1039428
-0.01445091 -0.04237974 0.1039203
-0.01326388 -0.04277548 0.1038977
-0.01207691 -0.0431712 0.1038752
-0.01088989 -0.04356694 0.1038527
-0.009702921 -0.04396269 0.1038302
-0.008217812 -0.04370412 0.1030987
-0.006429315 -0.04279312 0.1016583
-0.004633546 -0.04188454 0.1002177
-0.003437519 -0.0422833 0.100195
-0.001936257 -0.04203022 0.09946331
-0.0007383823 -0.04242954 0.09944057
0.0004594326 -0.04282889 0.09941784
0.002278686 -0.04192817 0.09797686
0.003480077 -0.04232875 0.09795406
0.004681587 -0.04272929 0.09793127
0.005250812 -0.04442629 0.09932694
0.006448627 -0.04482564 0.0993042
0.007646441 -0.04522499 0.09928146
-0.01719981 -0.0394778 0.1003583
-0.01686037 -0.04184717 0.1024653
-0.01567155 -0.04224351 0.1024427
-0.01477128 -0.04329574 0.1031301
-0.01358426 -0.04369149 0.1031076
-0.01239729 -0.04408723 0.103085
-0.01121032 -0.04448295 0.1030625
-0.009727538 -0.04422522 0.1023299
-0.008538723 -0.04462153 0.1023073
-0.006451845 -0.04306111 0.1001544
-0.004956365 -0.04280755 0.09942153
-0.003457427 -0.04255524 0.09868866
-0.002259552 -0.04295459 0.09866595
-0.000448525 -0.04205427 0.09722269
0.0007529259 -0.04245481 0.09719989
0.002264619 -0.0422067 0.09646678
0.003467798 -0.04260787 0.09644395
0.004671097 -0.04300901 0.09642112
0.005558729 -0.04405701 0.09710869
0.00676018 -0.04445758 0.09708589
0.007961631 -0.04485813 0.09706309
-0.01752216 -0.0403994 0.09956336
-0.01632792 -0.04079753 0.09954071
-0.01541996 -0.04185075 0.1002292
-0.01480365 -0.04355726 0.1016288
-0.01361477 -0.0439536 0.1016062
-0.01242602 -0.04434994 0.1015837
-0.0112372 -0.04474628 0.1015611
-0.009457886 -0.04383844 0.100116
-0.008265436 -0.044236 0.1000934
-0.006774187 -0.04398268 0.09935942
-0.005279243 -0.04373056 0.09862536
-0.003780723 -0.04347962 0.0978913
-0.001974225 -0.04258087 0.09644571
-0.0007728338 -0.04298142 0.09642291
0.0007365346 -0.04273412 0.09568864
0.002249539 -0.04248798 0.09495419
0.003454626 -0.04288974 0.0949313
0.004659653 -0.04329151 0.09490845
0.005864739 -0.04369327 0.09488559
0.007069826 -0.04409504 0.09486273
0.008274853 -0.04449677 0.09483987
-0.01756239 -0.04066604 0.09805617
-0.0163663 -0.0410648 0.09803346
-0.01545608 -0.04211727 0.09872308
-0.01426184 -0.04251543 0.09870043
-0.0130676 -0.04291356 0.09867778
-0.01216453 -0.04396358 0.09936753
-0.01067913 -0.04370987 0.09863245
-0.009190142 -0.0434573 0.09789729
-0.007697523 -0.04320598 0.09716213
-0.006499648 -0.04360533 0.09713939
-0.004701436 -0.04270694 0.09569153
-0.003499985 -0.04310748 0.09566873
-0.001690924 -0.04221267 0.09422061
-0.0004858375 -0.04261443 0.09419775
0.001334071 -0.04172328 0.09274954
0.002542734 -0.04212624 0.09272659
0.003751397 -0.04252923 0.09270364
0.00496006 -0.04293218 0.09268072
0.006168783 -0.04333514 0.09265777
0.007377446 -0.0437381 0.09263486
-0.01788521 -0.04158905 0.09726
-0.01668918 -0.04198781 0.09723732
-0.01549309 -0.04238653 0.09721461
-0.01458418 -0.04343703 0.09790549
-0.01338995 -0.04383516 0.09788281
-0.01219571 -0.04423332 0.09786016
-0.01070899 -0.04398152 0.09712383
-0.009218693 -0.043731 0.09638751
-0.007428646 -0.042833 0.09493735
-0.006227195 -0.04323357 0.09491456
-0.004426301 -0.04233912 0.09346417
-0.002618194 -0.04144716 0.09201375
-0.001409531 -0.04185012 0.09199083
0.0001043081 -0.04160741 0.09125397
0.001314759 -0.04201096 0.09123099
0.00252527 -0.04241455 0.09120804
0.003735721 -0.0428181 0.09118506
0.004946232 -0.04322168 0.09116209
0.006156683 -0.04362524 0.09113914
0.007367194 -0.04402879 0.09111616
-0.01820803 -0.04251203 0.09646383
-0.017012 -0.04291078 0.09644115
-0.01581597 -0.04330954 0.09641844
-0.01461995 -0.04370829 0.09639576
-0.01313549 -0.04345733 0.09565833
-0.01193768 -0.04385668 0.09563559
-0.0107398 -0.04425603 0.09561285
-0.008954406 -0.04335964 0.09416038
-0.007161677 -0.04246557 0.09270772
-0.005361795 -0.04157397 0.09125504
-0.004153132 -0.04197693 0.09123212
-0.002944469 -0.04237989 0.09120917
-0.001735747 -0.04278287 0.09118623
-0.0002224445 -0.04254153 0.0904482
0.001294494 -0.04230148 0.08971015
0.002506793 -0.04270563 0.08968714
0.003719091 -0.0431098 0.08966413
0.004931331 -0.04351398 0.08964112
0.00582999 -0.04455936 0.09033334
0.007040501 -0.04496294 0.09031039
-0.01613879 -0.04423252 0.0956223
-0.01465666 -0.04398236 0.09488368
-0.01288301 -0.04308513 0.09342903
-0.01226097 -0.04478106 0.09483823
-0.01048011 -0.04388624 0.09338343
-0.009278655 -0.04428679 0.09336063
-0.007486939 -0.04339552 0.09190556
-0.005688012 -0.04250672 0.09045047
-0.004479349 -0.04290968 0.09042752
-0.002970099 -0.04266855 0.08968836
-0.001759648 -0.04307213 0.08966538
-0.0002449751 -0.04283282 0.08892617
0.0009672642 -0.043237 0.08890316
0.002487361 -0.04299948 0.08816379
0.003391862 -0.04404533 0.08885714
0.004604161 -0.04444951 0.08883417
0.00581646 -0.04485369 0.08881116
0.007028699 -0.04525784 0.08878815
-0.0114274 -0.04312021 0.09117198
-0.01022232 -0.04352197 0.09114912
-0.009017289 -0.04392374 0.09112626
-0.00722295 -0.04303652 0.08966881
-0.005717814 -0.04279557 0.08892852
-0.004507303 -0.04319912 0.08890554
-0.002996802 -0.04296005 0.08816519
-0.001784503 -0.04336423 0.08814219
-0.0005722046 -0.04376838 0.08811918
0.0009455681 -0.04353163 0.08737862
0.002159655 -0.0439364 0.08735561
0.003373742 -0.04434118 0.08733255
0.004276931 -0.04538506 0.08802718
0.00548923 -0.04578921 0.08800417
-0.01117522 -0.04276037 0.08893305
-0.009966493 -0.04316333 0.0889101
-0.008465528 -0.04292259 0.08816865
-0.007255018 -0.04332617 0.0881457
-0.00574863 -0.04308724 0.08740422
-0.004536271 -0.04349142 0.08738121
-0.003024459 -0.04325426 0.08663955
-0.001810312 -0.04365903 0.08661652
1.013279e-05 -0.04278359 0.08515611
0.001227856 -0.04318956 0.08513302
0.002445579 -0.04359555 0.08510989
0.003663242 -0.04400152 0.08508679
0.004880965 -0.04440749 0.0850637
0.006098688 -0.04481345 0.08504057
-0.01092494 -0.04240611 0.08668923
-0.009712696 -0.04281029 0.08666623
-0.008500397 -0.04321444 0.08664322
-0.007288098 -0.04361862 0.08662021
-0.005780339 -0.04338163 0.08587745
-0.004566193 -0.04378641 0.08585441
-0.002753973 -0.04291135 0.08439174
-0.00153625 -0.04331735 0.08436862
-0.0003185272 -0.04372332 0.08434552
0.001203656 -0.04349121 0.08360246
0.002423167 -0.04389781 0.08357933
0.003642678 -0.04430437 0.08355618
0.004862189 -0.04471096 0.08353305
-0.0128243 -0.04060328 0.08376598
-0.01160663 -0.04100925 0.08374289
-0.01096439 -0.04269949 0.08516142
-0.009750307 -0.04310426 0.08513838
-0.00853622 -0.04350904 0.08511534
-0.007322133 -0.04391381 0.08509231
-0.005518079 -0.04303914 0.08362734
-0.004300356 -0.04344511 0.08360425
-0.002784014 -0.04321259 0.08286008
-0.001564503 -0.04361919 0.08283696
-0.0003449917 -0.04402575 0.0828138
0.0008745193 -0.04443234 0.08279067
0.00209403 -0.04483891 0.08276755
0.003313541 -0.0452455 0.08274439
0.004533052 -0.04565206 0.08272123
-0.013807 -0.03985193 0.08153462
-0.01286936 -0.04090109 0.08223343
-0.01193529 -0.04194897 0.08293229
-0.01043034 -0.04171425 0.08218715
-0.009499907 -0.04276094 0.08288607
-0.008282185 -0.04316691 0.08286297
-0.007064462 -0.04357287 0.08283988
-0.005552232 -0.04334056 0.08209458
-0.004036427 -0.04310939 0.08134922
-0.002815127 -0.04351658 0.08132604
-0.001593769 -0.04392374 0.08130288
-0.0003724098 -0.04433092 0.0812797
0.0008488894 -0.04473811 0.08125651
0.002680898 -0.04387587 0.07978868
0.003905773 -0.04428425 0.07976544
