# .PCD v.7 - Point Cloud Data file format
FIELDS x y z
SIZE 4 4 4
TYPE F F F
COUNT 1 1 1
WIDTH 1385
HEIGHT 1
VIEWPOINT 0 0 0 1 0 0 0
POINTS 1385
DATA ascii
0.03507781 -0.02972555 0.08311832
0.03632444 -0.03014117 0.08309466
0.03757107 -0.0305568 0.08307099
-0.03007567 -0.005286574 0.08002043
-0.02907258 -0.006379336 0.08070099
-0.02807307 -0.007470846 0.08138162
-0.02682102 -0.007888287 0.08135787
-0.02556896 -0.008305699 0.08133411
-0.02431697 -0.00872311 0.08131033
-0.02489597 -0.01383817 0.08621857
-0.02365661 -0.01425138 0.08619505
-0.02241719 -0.01466459 0.08617151
-0.02117777 -0.01507777 0.08614799
-0.02047598 -0.01682836 0.08753389
-0.01924026 -0.01724035 0.08751044
-0.01800442 -0.01765236 0.08748698
-0.01676869 -0.01806435 0.08746356
-0.01553291 -0.01847637 0.0874401
-0.01457494 -0.01955402 0.08812153
-0.01334095 -0.01996541 0.08809814
-0.01077932 -0.02385268 0.09084794
-0.009552598 -0.02426165 0.09082466
-0.00803715 -0.02400857 0.09009632
-0.006808639 -0.02441818 0.09007302
-0.005580068 -0.02482778 0.09004971
-0.004351497 -0.02523735 0.09002638
-0.003122985 -0.02564695 0.09000307
-0.001894414 -0.02605653 0.08997977
-0.0006659031 -0.02646613 0.08995646
0.0005626678 -0.0268757 0.08993316
0.001791239 -0.02728531 0.08990982
0.00301981 -0.02769488 0.08988652
0.004248321 -0.02810448 0.08986321
0.005476892 -0.02851409 0.08983991
0.007326126 -0.027614 0.08840555
0.008558273 -0.02802479 0.08838215
0.00979048 -0.02843559 0.08835879
0.01133841 -0.02819335 0.08762985
0.01257241 -0.02860475 0.08760643
0.01380634 -0.02901614 0.08758301
0.01504028 -0.02942753 0.08755961
0.01627427 -0.02983892 0.08753619
0.01750827 -0.03025034 0.08751276
0.01906884 -0.03001231 0.08678353
0.02030462 -0.03042433 0.08676007
0.0215404 -0.03083631 0.08673662
0.02277619 -0.0312483 0.08671319
0.02401197 -0.03166032 0.08668974
0.02524769 -0.03207231 0.08666629
0.02817082 -0.02925536 0.08311284
0.02873707 -0.03096071 0.08450124
0.03066039 -0.03008538 0.0830656
0.03190523 -0.03050038 0.083042
0.03315002 -0.03091538 0.08301836
0.03474134 -0.0306876 0.08228847
0.03598797 -0.03110319 0.08226484
0.0653069 -0.005996078 0.04952669
0.06722641 -0.008152634 0.05088955
0.06929606 -0.007326037 0.04945099
-0.03117335 -0.004489154 0.07779735
-0.03041458 -0.006255567 0.07918456
-0.02915895 -0.0066742 0.07916075
-0.02815717 -0.007764965 0.07984257
-0.02715898 -0.008854479 0.08052441
-0.02590692 -0.00927192 0.08050066
-0.02517343 -0.0110299 0.08188838
-0.0244472 -0.01278555 0.08327627
-0.02372819 -0.01453874 0.0846642
-0.0235458 -0.01762652 0.08746403
-0.02231187 -0.01803792 0.08744061
-0.02107787 -0.01844931 0.08741722
-0.01111042 -0.02479938 0.09003133
-0.009883702 -0.02520835 0.09000805
-0.00836879 -0.02495667 0.08927852
-0.007140219 -0.02536625 0.08925521
-0.005911708 -0.02577585 0.08923191
-0.004683137 -0.02618545 0.08920857
-0.003454566 -0.02659503 0.08918527
-0.002225995 -0.02700463 0.08916196
-0.0009974837 -0.0274142 0.08913866
-6.973743e-05 -0.02848026 0.08982182
0.001459599 -0.02823338 0.08909202
0.002688169 -0.02864298 0.08906871
0.00391674 -0.02905256 0.08904541
0.005145311 -0.02946216 0.0890221
0.006373823 -0.02987176 0.08899876
0.008225739 -0.02897567 0.08756196
0.009457886 -0.02938646 0.08753857
0.01069009 -0.02979726 0.08751521
0.01192224 -0.03020805 0.08749181
0.01315439 -0.03061885 0.08746845
0.01470727 -0.0303798 0.08673817
0.01561868 -0.03144044 0.08742169
0.01685089 -0.03185123 0.08739829
0.01840913 -0.03161401 0.08666795
0.01997107 -0.03137797 0.08593747
0.02120686 -0.03178999 0.08591402
0.02244258 -0.03220198 0.08589056
0.02367842 -0.03261399 0.08586711
0.02491415 -0.03302598 0.08584365
0.02817178 -0.02957156 0.08157691
0.02840209 -0.03191859 0.08367503
0.0303244 -0.031046 0.08223698
0.03156924 -0.03146103 0.08221334
0.03281403 -0.03187603 0.08218974
0.05717587 0.004649848 0.04037929
0.05852723 0.004199296 0.04035366
0.05952543 0.003109753 0.04103547
0.06494796 -0.007022262 0.04864156
0.06554234 -0.008733898 0.05003196
0.0676074 -0.007908881 0.04859108
0.06893718 -0.00835222 0.04856586
-0.03151321 -0.005460918 0.07695907
-0.03075349 -0.00722456 0.07834873
-0.02949786 -0.007643193 0.07832488
-0.02849555 -0.008732557 0.07900792
-0.02749693 -0.0098207 0.07969096
-0.02675885 -0.01157713 0.08108103
-0.02551043 -0.01199332 0.08105734
-0.0245226 -0.01307786 0.08174059
-0.02406323 -0.01549658 0.08383796
-0.02361465 -0.0179117 0.08593556
-0.02237892 -0.01832369 0.08591211
-0.02114308 -0.01873568 0.08588865
-0.01144159 -0.02574605 0.08921471
-0.01021481 -0.02615505 0.08919144
-0.008988082 -0.02656403 0.08916816
-0.0074718 -0.02631435 0.08843741
-0.006243289 -0.02672392 0.0884141
-0.005014718 -0.02713352 0.08839077
-0.003786206 -0.02754313 0.08836746
-0.002557635 -0.0279527 0.08834416
-0.001627624 -0.02901796 0.08902851
-0.0004009008 -0.02942693 0.08900523
0.000825882 -0.02983594 0.08898193
0.002052605 -0.03024492 0.08895868
0.003279328 -0.03065389 0.08893538
0.004506111 -0.0310629 0.0889121
0.005732834 -0.03147188 0.08888882
0.007270813 -0.03122944 0.08815765
0.00818634 -0.03228986 0.08884227
0.009727895 -0.03204858 0.08811104
0.01158965 -0.03115892 0.08667159
0.01218498 -0.03286779 0.0880644
0.01405394 -0.03198051 0.08662483
0.01464206 -0.03368697 0.08801779
0.01587063 -0.03409654 0.08799449
0.01807606 -0.03256628 0.08584654
0.01931006 -0.03297767 0.08582312
0.02087331 -0.03274363 0.08509141
0.02210903 -0.03315565 0.08506796
0.02334487 -0.03356764 0.0850445
0.0245806 -0.03397965 0.08502105
0.02783531 -0.03053358 0.08074707
0.0294202 -0.03030679 0.080015
0.03066862 -0.03072301 0.07999134
0.05511236 0.003418088 0.04021388
0.05576372 0.001690596 0.04160559
0.05710971 0.001241863 0.04158008
0.05775017 -0.0004820824 0.04297203
0.05909252 -0.0009296238 0.04294652
0.06043494 -0.001377165 0.04292107
0.06471366 -0.005069226 0.04494596
0.06568521 -0.006148338 0.04562956
0.0659188 -0.008491725 0.04773116
0.06724852 -0.008935064 0.04770595
0.06857824 -0.009378374 0.04768068
0.06990796 -0.009821683 0.04765546
-0.03160566 -0.005761594 0.07541287
-0.03059387 -0.006852567 0.07609695
-0.02983677 -0.008612216 0.07748905
-0.02883399 -0.009700179 0.07817328
-0.02758014 -0.01011819 0.0781495
-0.02658284 -0.01120433 0.07883376
-0.02584743 -0.01295674 0.0802263
-0.02485907 -0.01403987 0.08091074
-0.02439821 -0.01645443 0.08301175
-0.02342075 -0.01753393 0.08369645
-0.02218139 -0.01794714 0.08367294
-0.02094197 -0.01836035 0.08364943
-0.01205629 -0.0273518 0.08910677
-0.01054591 -0.02710176 0.08837485
-0.009319186 -0.02751073 0.08835155
-0.008092463 -0.02791971 0.08832827
-0.00686574 -0.02832872 0.088305
-0.005638957 -0.02873769 0.08828172
-0.004412174 -0.02914667 0.08825845
-0.003185451 -0.02955568 0.08823517
-0.001958728 -0.02996466 0.08821189
-0.000731945 -0.03037363 0.08818862
0.0004947186 -0.03078261 0.08816534
0.001721501 -0.03119162 0.08814207
0.002948225 -0.03160059 0.08811879
0.004175007 -0.0320096 0.08809552
0.005401731 -0.03241858 0.08807224
0.006628513 -0.03282756 0.08804893
0.007855177 -0.03323653 0.08802569
0.00908196 -0.03364554 0.08800238
0.01030874 -0.03405452 0.08797911
0.01153541 -0.0344635 0.08795583
0.01308191 -0.03422546 0.08722329
0.01431048 -0.03463504 0.08719999
0.01553905 -0.03504464 0.08717668
0.01774299 -0.03351855 0.0850251
0.01897699 -0.03392994 0.08500168
0.02053976 -0.03369731 0.08426878
0.02177548 -0.03410929 0.08424532
0.02301133 -0.03452131 0.08422187
0.02625221 -0.03108001 0.07994092
0.02783483 -0.03085402 0.07920766
0.03009665 -0.02934721 0.07705507
0.03169012 -0.0291248 0.07632157
0.03294575 -0.02954343 0.07629773
0.05405438 0.00110063 0.04073519
0.05470312 -0.0006229281 0.0421294
0.05604547 -0.001070499 0.04210389
0.05703562 -0.002154201 0.04278833
0.05837619 -0.002601147 0.04276288
0.05971676 -0.003048062 0.04273748
0.06105733 -0.003495008 0.04271203
0.06373847 -0.004388869 0.04266113
0.06507897 -0.004835814 0.04263574
0.06568974 -0.006546706 0.04403067
0.06702673 -0.006992429 0.04400527
0.06836367 -0.007438153 0.04397988
-0.03120512 -0.004725575 0.07244599
-0.03018743 -0.005816936 0.07313114
-0.02892274 -0.00623858 0.07310715
-0.02892005 -0.009999812 0.07662937
-0.02791858 -0.01108581 0.07731485
-0.0269208 -0.01217055 0.07800034
-0.02618438 -0.01392019 0.07939526
-0.02493596 -0.01433641 0.07937157
-0.02421039 -0.01608247 0.08076674
-0.02349204 -0.01782608 0.08216196
-0.02225089 -0.01823989 0.08213842
-0.02234393 -0.02196923 0.08566242
-0.02111173 -0.02238002 0.08563906
-0.01987958 -0.02279082 0.08561569
-0.01455724 -0.02682146 0.08762807
-0.01333052 -0.02723047 0.08760479
-0.0121038 -0.02763945 0.08758152
-0.01087701 -0.02804843 0.08755824
-0.00965029 -0.0284574 0.08753496
-0.008423567 -0.02886641 0.08751169
-0.007196784 -0.02927539 0.08748841
-0.005970061 -0.02968436 0.08746511
-0.005037308 -0.03074741 0.0881519
-0.003516555 -0.03050235 0.08741856
-0.002587438 -0.03156418 0.08810541
-0.001362443 -0.03197256 0.08808216
-0.0001375675 -0.03238094 0.08805892
0.001390398 -0.03213829 0.08732545
0.002617121 -0.0325473 0.08730218
0.003843904 -0.03295627 0.0872789
0.005070627 -0.03336525 0.08725563
0.00629735 -0.03377426 0.08723235
0.007524133 -0.03418323 0.08720908
0.008750856 -0.03459221 0.0871858
0.009977579 -0.03500122 0.08716252
0.01120436 -0.0354102 0.08713925
0.01275033 -0.03517354 0.08640549
0.01397884 -0.03558314 0.08638218
0.01520741 -0.03599271 0.08635885
0.01708531 -0.03511465 0.08491427
0.01864392 -0.03488222 0.08418027
0.02020621 -0.03465098 0.08344615
0.02309239 -0.03185287 0.07986918
0.02433717 -0.03226787 0.07984555
0.02624941 -0.03140122 0.07840031
0.02749789 -0.03181744 0.07837662
0.02975821 -0.03031483 0.07622042
0.03135121 -0.03009379 0.07548571
0.03260684 -0.03051242 0.07546189
0.05299842 -0.001211345 0.04126126
0.05399263 -0.002294868 0.04194683
0.0553332 -0.002741814 0.04192138
0.05667377 -0.003188729 0.04189593
0.05801433 -0.003635675 0.04187053
0.0593549 -0.00408262 0.04184508
0.05998111 -0.005795538 0.04324216
0.06131804 -0.006241262 0.04321676
0.06337661 -0.005423427 0.04176879
0.06471717 -0.005870342 0.04174334
0.06605774 -0.006317288 0.04171789
-0.03154695 -0.005702943 0.07160291
-0.03028047 -0.006125182 0.07157889
-0.02901399 -0.006547421 0.07155484
-0.02850324 -0.008969247 0.07366216
-0.02800333 -0.01138744 0.07576969
-0.02700317 -0.01247144 0.0764564
-0.02574933 -0.01288944 0.07643262
-0.02527291 -0.01529983 0.07854053
-0.02454638 -0.01704311 0.07993811
-0.02382708 -0.01878393 0.08133572
-0.02205676 -0.01787314 0.07989088
-0.02214378 -0.02159667 0.08342081
-0.02117616 -0.02266979 0.08410814
-0.01994216 -0.02308118 0.08408472
-0.01870823 -0.02349257 0.08406129
-0.01720071 -0.02324468 0.083327
-0.0162403 -0.02431539 0.08401448
-0.0150063 -0.02472678 0.08399105
-0.0146094 -0.02711067 0.08610052
-0.01366162 -0.02817714 0.08678818
-0.0124349 -0.02858615 0.0867649
-0.01120818 -0.02899513 0.08674163
-0.009981394 -0.0294041 0.08671835
-0.008754671 -0.02981311 0.08669508
-0.007527947 -0.03022209 0.0866718
-0.00659287 -0.03128433 0.08735973
-0.005367875 -0.03169271 0.08733648
-0.004143 -0.03210109 0.08731323
-0.002918005 -0.03250948 0.08729002
-0.00169313 -0.03291786 0.08726677
-0.0004681349 -0.03332627 0.08724353
0.001059294 -0.03308499 0.08650884
0.002286017 -0.033494 0.08648556
0.00351274 -0.03390297 0.08646229
0.004739523 -0.03431195 0.08643901
0.005966246 -0.03472096 0.08641574
0.007192969 -0.03512993 0.08639246
0.008733034 -0.03489286 0.0856576
0.01059186 -0.03401154 0.08421096
0.01182407 -0.03442234 0.08418757
0.01337498 -0.0341889 0.08345252
0.01460898 -0.03460029 0.0834291
0.01584291 -0.03501168 0.0834057
0.01804948 -0.03349575 0.08124682
0.01928884 -0.03390896 0.08122331
0.02151155 -0.03239849 0.07906416
0.02308601 -0.03217283 0.07832855
0.02466404 -0.03194842 0.07759297
0.0265789 -0.03108582 0.07614532
0.02816594 -0.03086442 0.07540956
0.02975661 -0.03064418 0.07467371
0.0310123 -0.03106281 0.07464987
0.03294879 -0.03020743 0.07320181
0.03420806 -0.03062725 0.0731779
0.05129373 -0.001799732 0.04039317
0.05229026 -0.002882481 0.04107988
0.05363083 -0.003329396 0.04105449
0.05497134 -0.003776342 0.04102904
0.05631196 -0.004223287 0.04100358
0.05694628 -0.005935818 0.04240292
0.05828327 -0.006381541 0.04237753
0.0596202 -0.006827265 0.0423522
0.06095719 -0.007272989 0.04232681
0.06229413 -0.007718742 0.04230148
-0.0306223 -0.007102549 0.07073581
-0.02885664 -0.00619334 0.06928861
-0.02808934 -0.007947028 0.07068777
-0.02758253 -0.01036286 0.07279879
-0.02708656 -0.01277506 0.07491001
-0.02608776 -0.01385707 0.07559797
-0.0250926 -0.01493782 0.07628593
-0.02436149 -0.01667947 0.0776858
-0.02337527 -0.01775721 0.07837394
-0.0221287 -0.0181728 0.07835028
-0.02114797 -0.01924878 0.07903862
-0.02043849 -0.02098319 0.08043885
-0.01946676 -0.0220561 0.08112732
-0.01876998 -0.02378634 0.08252782
-0.01753426 -0.02419835 0.08250439
-0.01657337 -0.02526766 0.08319306
-0.01533937 -0.02567905 0.08316964
-0.01410544 -0.02609044 0.08314621
-0.01315176 -0.02715734 0.08383498
-0.01191962 -0.02756813 0.08381158
-0.01125532 -0.02928752 0.0852128
-0.01002681 -0.02969712 0.08518946
-0.008798242 -0.03010669 0.08516616
-0.007859051 -0.03116879 0.08585519
-0.006632328 -0.03157777 0.08583191
-0.005405545 -0.03198677 0.08580863
-0.004178822 -0.03239575 0.08578536
-0.002952099 -0.03280473 0.08576208
-0.001725316 -0.03321373 0.08573881
-0.0004985929 -0.03362271 0.08571553
0.0007281303 -0.03403169 0.08569226
0.001954913 -0.03444067 0.08566898
0.003181636 -0.03484967 0.08564568
0.00440836 -0.03525865 0.0856224
0.005635142 -0.03566763 0.08559912
0.007172942 -0.03543136 0.08486313
0.009027123 -0.03455162 0.08341414
0.01025933 -0.03496242 0.08339074
0.01180792 -0.03472978 0.08265451
0.01304191 -0.03514117 0.08263111
0.01427591 -0.03555256 0.08260769
0.01583171 -0.03532231 0.08187127
0.01771492 -0.0344522 0.08042181
0.01927984 -0.03422499 0.07968521
0.02150291 -0.03271925 0.07752237
0.02307868 -0.03249562 0.07678562
0.02498889 -0.0316346 0.07533562
0.02657366 -0.031414 0.07459873
0.02816206 -0.03119457 0.07386169
0.02941769 -0.03161317 0.07383785
0.03134966 -0.03075939 0.07238746
0.03260887 -0.03117922 0.07236356
0.03386819 -0.03159904 0.07233965
0.0519284 -0.003917009 0.04018754
0.05257463 -0.005630374 0.04158908
0.05391157 -0.006076097 0.04156369
0.0552485 -0.006521821 0.0415383
0.05658543 -0.006967545 0.04151297
0.05792236 -0.007413298 0.04148757
0.05890316 -0.008489221 0.04217583
0.0602383 -0.008934349 0.0421505
-0.02948022 -0.00409025 0.06561607
-0.02870119 -0.005844772 0.0670175
-0.02843118 -0.008924395 0.06984469
-0.02741742 -0.01000977 0.07053357
-0.02691638 -0.01241904 0.07264835
-0.02616984 -0.01416272 0.07405037
-0.02517235 -0.0152427 0.07473955
-0.02495837 -0.0183036 0.07756776
-0.0237118 -0.01871923 0.07754409
-0.02246517 -0.01913485 0.07752043
-0.02148396 -0.0202094 0.07821
-0.02023911 -0.02062443 0.07818639
-0.01953232 -0.02235484 0.07958907
-0.01856196 -0.02342576 0.08027878
-0.01732254 -0.02383897 0.08025527
-0.01663202 -0.02556401 0.0816583
-0.01567245 -0.02663133 0.08234823
-0.01443851 -0.02704272 0.0823248
-0.01320451 -0.02745411 0.08230138
-0.01225221 -0.028519 0.08299136
-0.01102006 -0.0289298 0.082968
-0.01035839 -0.03064519 0.08437169
-0.009129822 -0.03105479 0.08434835
-0.008190155 -0.03211546 0.08503857
-0.006963432 -0.03252447 0.0850153
-0.005736709 -0.03293344 0.08499202
-0.004215658 -0.03269315 0.0842551
-0.002987087 -0.03310272 0.08423179
-0.002056479 -0.03416041 0.08492219
-0.0005300045 -0.03392193 0.08418518
0.0006985664 -0.0343315 0.08416188
0.001927137 -0.0347411 0.08413854
0.003155649 -0.03515068 0.08411524
0.00438422 -0.03556028 0.08409193
0.005612731 -0.03596985 0.08406863
0.006841302 -0.03637946 0.08404529
0.008694589 -0.03550252 0.08259392
0.01024091 -0.03527063 0.08185652
0.01147485 -0.03568205 0.08183309
0.0130266 -0.03545198 0.08109555
0.01426244 -0.035864 0.08107209
0.016141 -0.03499547 0.07962027
0.01835001 -0.03348973 0.07745415
0.01991981 -0.03326568 0.07671618
0.02149326 -0.03304285 0.07597828
0.02339888 -0.03218341 0.07452595
0.02498138 -0.03196359 0.07378787
0.02656746 -0.03174493 0.07304966
0.02782309 -0.03216356 0.07302582
0.02975047 -0.03131133 0.07157308
0.03134739 -0.03109634 0.07083467
0.03260845 -0.03151676 0.07081074
0.0338695 -0.03193721 0.0707868
0.05186701 -0.00729394 0.04141372
0.05320215 -0.007739067 0.04138839
0.0545373 -0.008184195 0.04136306
0.0558725 -0.008629322 0.04133773
0.05720758 -0.00907445 0.0413124
0.05854279 -0.009519577 0.04128706
0.05987793 -0.009964705 0.04126173
0.06121308 -0.01040983 0.0412364
-0.02982497 -0.005075991 0.06476581
-0.02904499 -0.006827712 0.06616962
-0.02802169 -0.007914722 0.06685954
-0.02750653 -0.010324 0.06897759
-0.02700222 -0.01272967 0.07109594
-0.02599704 -0.01381063 0.0717862
-0.02525312 -0.01555032 0.07319069
-0.02503538 -0.01860631 0.07602373
-0.02378696 -0.01902252 0.07600003
-0.02280164 -0.02009687 0.07669061
-0.02181995 -0.02117005 0.07738137
-0.02057511 -0.02158505 0.07735774
-0.01933032 -0.02200007 0.07733411
-0.01862615 -0.02372649 0.07873929
-0.01765704 -0.02479541 0.07943022
-0.01696557 -0.02651769 0.0808357
-0.01600552 -0.0275836 0.08152682
-0.01477158 -0.02799499 0.08150339
-0.01353759 -0.02840638 0.08147997
-0.01230359 -0.02881777 0.08145657
-0.01106966 -0.02922916 0.08143315
-0.01012045 -0.03029147 0.08212441
-0.008888245 -0.03070226 0.08210102
-0.007656097 -0.03111306 0.08207765
-0.00700438 -0.03282204 0.08348393
-0.005775809 -0.03323165 0.08346063
-0.003959656 -0.03234544 0.0820075
-0.002727449 -0.03275624 0.08198413
-0.002090156 -0.03446043 0.08339068
-0.0002631545 -0.03357783 0.08193737
0.0009690523 -0.03398862 0.08191398
0.0022012 -0.03439942 0.08189061
0.003433347 -0.03481022 0.08186722
0.004665494 -0.03522101 0.08184385
0.005897641 -0.03563181 0.08182046
0.007129848 -0.0360426 0.08179706
0.008673906 -0.03581151 0.0810585
0.009907842 -0.0362229 0.08103511
0.01145732 -0.03599364 0.08029637
0.01269305 -0.03640565 0.08027291
0.01392889 -0.03681764 0.08024949
0.01612735 -0.03531307 0.07807985
0.01801401 -0.03445038 0.07662553
0.01958334 -0.0342277 0.07588634
0.02180892 -0.03273219 0.07371625
0.0233891 -0.03251317 0.07297701
0.02497292 -0.03229532 0.07223764
0.02622855 -0.03271392 0.0722138
0.02815133 -0.0318633 0.07075873
0.02974594 -0.03164908 0.07001916
0.03168136 -0.03080264 0.06856382
0.03294599 -0.03122428 0.06853986
0.03421068 -0.03164592 0.06851584
0.03547537 -0.03206754 0.06849182
0.04948276 -0.009141177 0.04198194
0.05081427 -0.009585112 0.04195672
0.05214584 -0.01002902 0.04193145
0.05347735 -0.01047295 0.04190618
0.05480886 -0.01091686 0.04188091
0.05614042 -0.01136079 0.04185563
0.05747193 -0.0118047 0.04183036
0.05880344 -0.01224864 0.04180509
0.05977619 -0.01331878 0.04249591
0.06110585 -0.01376209 0.04247069
-0.02992344 -0.005399555 0.06320041
-0.02889246 -0.006487548 0.06389129
-0.02811503 -0.008235306 0.06529754
-0.02734482 -0.009980679 0.06670403
-0.02683544 -0.01238334 0.06882584
-0.02608156 -0.01412329 0.07023257
-0.02507764 -0.01520225 0.07092404
-0.02459538 -0.01759595 0.07304645
-0.02412391 -0.01998594 0.075169
-0.02313811 -0.02105892 0.07586077
-0.02189147 -0.02147451 0.07583714
-0.0206449 -0.02189013 0.07581347
-0.01966631 -0.02296072 0.07650548
-0.01842153 -0.02337572 0.07648188
-0.01771998 -0.02509815 0.0778895
-0.01729912 -0.02747133 0.08001307
-0.01606333 -0.02788335 0.07998961
-0.01482755 -0.02829534 0.07996619
-0.01387066 -0.02935866 0.08065856
-0.01263666 -0.02977005 0.08063513
-0.01140273 -0.03018144 0.08061174
-0.01016873 -0.03059286 0.08058831
-0.008934736 -0.03100425 0.08056492
-0.007700801 -0.03141564 0.08054149
-0.006756544 -0.03247473 0.08123404
-0.005232871 -0.03223842 0.08049464
-0.003998876 -0.03264982 0.08047125
-0.00276494 -0.03306121 0.08044782
-0.001530945 -0.03347263 0.08042443
-0.0002969503 -0.03388402 0.080401
0.000936985 -0.03429541 0.08037758
0.00217092 -0.0347068 0.08035415
0.003404915 -0.03511822 0.08033076
0.004944861 -0.03488731 0.07959101
0.005872846 -0.035941 0.08028394
0.007106841 -0.0363524 0.08026052
0.00865221 -0.03612331 0.07952064
0.009887993 -0.03653532 0.07949719
0.0117538 -0.03566876 0.07804078
0.01299316 -0.03608197 0.07801726
0.01455116 -0.03585711 0.07727715
0.01643318 -0.034996 0.07582051
0.01800025 -0.03477412 0.07508016
0.02021897 -0.033281 0.07290658
0.02179682 -0.03306276 0.07216614
0.02337837 -0.03284568 0.07142562
0.024634 -0.03326431 0.07140177
0.02655214 -0.03241527 0.06994438
0.02781141 -0.0328351 0.06992048
0.02940559 -0.03262228 0.06917971
0.03066659 -0.0330427 0.06915575
0.0319277 -0.03346315 0.06913185
0.03318876 -0.03388357 0.06910789
0.04779184 -0.009724826 0.04112089
0.04912335 -0.01016873 0.04109561
0.05045485 -0.01061267 0.04107034
0.05178642 -0.01105657 0.04104507
0.05311793 -0.01150051 0.0410198
0.05444944 -0.01194441 0.04099452
0.05578101 -0.01238835 0.04096925
0.05675781 -0.01345828 0.0416612
0.05808753 -0.01390162 0.04163599
0.0587005 -0.01559457 0.0430454
0.06002665 -0.01603669 0.04302025
-0.03026867 -0.006386667 0.0623489
-0.02898955 -0.006813139 0.06232464
-0.02845883 -0.009218246 0.06444967
-0.02743638 -0.01030186 0.06514204
-0.02692378 -0.01270097 0.06726742
-0.02591217 -0.01378095 0.06795996
-0.02516085 -0.01551691 0.0693692
-0.02467531 -0.01790696 0.07149515
-0.02367997 -0.01898158 0.07218802
-0.02268827 -0.02005494 0.07288089
-0.022228 -0.02243656 0.07500729
-0.02098137 -0.02285215 0.07498363
-0.02000231 -0.02392134 0.07567686
-0.01875746 -0.02433634 0.07565323
-0.01751268 -0.02475137 0.07562962
-0.01681376 -0.02646983 0.07703972
-0.01639688 -0.028837 0.07916701
-0.01516116 -0.02924901 0.07914355
-0.01392531 -0.029661 0.0791201
-0.01268959 -0.03007299 0.07909667
-0.0117358 -0.03113371 0.07979032
-0.0105018 -0.0315451 0.0797669
-0.009267807 -0.03195649 0.0797435
-0.008033872 -0.03236791 0.07972008
-0.006799936 -0.03277931 0.07969666
-0.005274892 -0.032545 0.07895598
-0.004039109 -0.03295699 0.07893252
-0.002803326 -0.033369 0.07890907
-0.001864016 -0.03442487 0.07960302
-0.0003318191 -0.03419298 0.07886216
0.0006039143 -0.03524768 0.07955617
0.002139747 -0.03501698 0.07881528
0.00337553 -0.03542897 0.07879183
0.004611313 -0.03584099 0.07876837
0.005847096 -0.03625298 0.07874492
0.00708288 -0.03666499 0.07872146
0.008318663 -0.03707698 0.07869804
0.01017988 -0.03621203 0.07723927
0.01173377 -0.03598735 0.07649803
0.01297498 -0.03640115 0.07647449
0.01517051 -0.03490493 0.07429764
0.0167371 -0.03468448 0.07355624
0.01862895 -0.03382978 0.07209688
0.02020454 -0.03361234 0.07135528
0.02178377 -0.03339607 0.07061359
0.0230394 -0.0338147 0.07058978
0.02495301 -0.03296721 0.06913
0.02621228 -0.03338706 0.0691061
0.02780414 -0.03317502 0.06836414
0.02973396 -0.03233296 0.06690413
0.03032625 -0.03401589 0.06831628
0.0315873 -0.03443632 0.06829238
0.03284836 -0.03485674 0.06826848
0.04709077 -0.01138121 0.04095268
0.04842055 -0.01182455 0.04092747
0.04975027 -0.01226786 0.0409022
0.05107999 -0.01271117 0.04087698
0.05240971 -0.01315451 0.04085177
0.05409008 -0.012972 0.0401082
0.05506915 -0.01404113 0.04080129
0.05639887 -0.01448447 0.04077607
0.05701643 -0.01617584 0.04218781
0.05762684 -0.01786479 0.04359967
0.05894929 -0.01830569 0.04357457
-0.03061396 -0.00737381 0.06149745
-0.02933478 -0.007800251 0.06147313
-0.02880263 -0.01020119 0.06360179
-0.0277797 -0.0112834 0.06429535
-0.0267604 -0.01236445 0.06498897
-0.02599907 -0.01410058 0.06640035
-0.02498883 -0.01517856 0.06709415
-0.02449816 -0.01756567 0.06922364
-0.02375853 -0.01929459 0.07063547
-0.02276456 -0.02036721 0.07132956
-0.02151072 -0.02078521 0.07130578
-0.02052212 -0.02185598 0.07199994
-0.01980418 -0.02357766 0.07341218
-0.01882458 -0.02464542 0.07410648
-0.01757801 -0.02506101 0.07408282
-0.01660383 -0.02612701 0.07477736
-0.01618189 -0.0284912 0.07690811
-0.01494247 -0.02890438 0.0768846
-0.01370311 -0.02931759 0.07686108
-0.01246369 -0.0297308 0.07683757
-0.01178735 -0.03143868 0.07825059
-0.01055157 -0.03185067 0.07822716
-0.009315789 -0.03226265 0.07820371
-0.008080006 -0.03267467 0.07818025
-0.006844223 -0.03308666 0.0781568
-0.005608439 -0.03349864 0.07813334
-0.003787994 -0.03262323 0.07667294
-0.002548575 -0.03303644 0.07664943
-0.00190115 -0.03473467 0.07806301
-0.0006653666 -0.03514665 0.07803956
0.0005704165 -0.03555864 0.0780161
0.0018062 -0.03597066 0.07799265
0.003041983 -0.03638265 0.07796919
0.00488776 -0.03551567 0.07650834
0.006127119 -0.03592885 0.0764848
0.006749272 -0.03761864 0.07789886
0.008605957 -0.03675526 0.07643777
0.01015753 -0.03653139 0.07569537
0.01202679 -0.03567225 0.0742341
0.01327157 -0.03608727 0.07421046
0.01483405 -0.03586698 0.07346779
0.0164001 -0.0356479 0.07272521
0.01829106 -0.034796 0.07126343
0.02018923 -0.03394642 0.06980157
0.02209461 -0.03309935 0.06833953
0.02335382 -0.03351918 0.06831568
0.02494156 -0.03330734 0.06757259
0.02686322 -0.03246567 0.06611025
0.02846003 -0.03225684 0.06536698
0.02972651 -0.03267908 0.06534296
0.03099298 -0.03310132 0.06531894
0.03225946 -0.03352356 0.06529486
0.03352594 -0.0339458 0.06527084
0.04604959 -0.01366228 0.04150641
0.04806161 -0.0128507 0.04004228
0.04939133 -0.01329401 0.04001707
0.05533242 -0.0167571 0.04133028
0.05665851 -0.01719922 0.04130507
0.05691242 -0.01950744 0.04343909
0.05823314 -0.01994774 0.04341406
-0.03022456 -0.006386995 0.05848956
-0.02918667 -0.007472634 0.05918396
-0.02864945 -0.009870619 0.06131619
-0.02787268 -0.01160878 0.06272978
-0.02685106 -0.01268899 0.06342459
-0.02634096 -0.01507795 0.0655573
-0.02533019 -0.01615453 0.06625229
-0.02458054 -0.01788372 0.06766635
-0.02331948 -0.01830414 0.06764239
-0.02284181 -0.02068222 0.06977582
-0.02184916 -0.02175283 0.07047114
-0.02059531 -0.02217084 0.07044736
-0.01960802 -0.02323961 0.07114273
-0.01835597 -0.02365702 0.07111895
-0.01710391 -0.02407447 0.0710952
-0.01639587 -0.02578974 0.07251006
-0.01542121 -0.02685428 0.07320568
-0.01445019 -0.02791768 0.07390147
-0.01320541 -0.02833268 0.07387787
-0.01196063 -0.02874768 0.07385424
-0.01127779 -0.03045452 0.07526952
-0.01003665 -0.03086832 0.07524598
-0.00879544 -0.03128213 0.07522243
-0.006981373 -0.03040773 0.07375976
-0.005736589 -0.03082275 0.07373616
-0.005071878 -0.03252354 0.07515177
-0.003830671 -0.03293735 0.07512823
-0.002589464 -0.03335115 0.07510465
-0.001348257 -0.03376496 0.07508111
-0.0004043579 -0.0348193 0.07577738
0.0008350611 -0.03523248 0.07575387
0.00207448 -0.03564569 0.07573032
0.003616571 -0.03542021 0.0749869
0.004857719 -0.03583401 0.07496336
0.006098926 -0.03624782 0.07493979
0.007340133 -0.03666162 0.07491624
0.009201169 -0.03580287 0.07345271
0.01044595 -0.03621787 0.07342908
0.01200438 -0.03599778 0.07268527
0.01356632 -0.03577888 0.07194152
0.01544905 -0.03492737 0.07047752
0.01670104 -0.03534478 0.07045376
0.01859462 -0.03449681 0.06898957
0.020818 -0.03301924 0.06680489
0.02207905 -0.03343967 0.06678098
0.02399248 -0.03259835 0.06531638
0.02558517 -0.03238973 0.06457198
0.02751124 -0.03155264 0.06310719
0.0301078 -0.02945983 0.06020129
0.03071833 -0.03114259 0.06161803
0.03199202 -0.03156722 0.06159383
0.04334903 -0.01612353 0.04281056
0.04466975 -0.01656386 0.04278547
0.04633296 -0.01637867 0.04203975
0.0483439 -0.0155699 0.0405733
0.04967004 -0.01601201 0.04054815
0.05099612 -0.01645413 0.04052299
0.05232227 -0.01689625 0.04049784
0.05364835 -0.01733837 0.04047269
0.05497444 -0.01778048 0.04044747
0.05559039 -0.01946506 0.0418641
0.05655599 -0.02052662 0.04255992
0.05715925 -0.02220696 0.04397678
0.05847633 -0.02264607 0.04395181
-0.03008246 -0.0060651 0.05619442
-0.02928668 -0.007806569 0.05761009
-0.02874619 -0.01020098 0.05974591
-0.02771688 -0.01128221 0.06044173
-0.02694279 -0.01301637 0.0618577
-0.02592248 -0.01409459 0.06255376
-0.0249058 -0.01517165 0.06324983
-0.02414978 -0.01689979 0.06466615
-0.02314216 -0.01797378 0.06536239
-0.02265942 -0.02034891 0.06749934
-0.02192509 -0.02206984 0.06891614
-0.02066946 -0.02248847 0.0688923
-0.0196799 -0.02355647 0.0695889
-0.01842606 -0.02397451 0.06956512
-0.01717222 -0.02439252 0.06954134
-0.01618981 -0.0254581 0.07023802
-0.01493782 -0.02587551 0.07021427
-0.01368576 -0.02629292 0.07019049
-0.01298755 -0.02800182 0.07160795
-0.01173913 -0.028418 0.07158428
-0.01077127 -0.02947876 0.07228124
-0.009806991 -0.03053835 0.07297838
-0.008562207 -0.03095335 0.07295477
-0.007031381 -0.0307256 0.07221025
-0.006072521 -0.03178337 0.07290751
-0.004827738 -0.0321984 0.0728839
-0.004165649 -0.03389519 0.07430199
-0.002338111 -0.03302839 0.07283667
-0.001093328 -0.03344342 0.07281303
-0.0004420877 -0.03513664 0.07423133
0.0007991195 -0.03555045 0.07420778
0.002040327 -0.03596425 0.07418424
0.003885925 -0.03510347 0.07271856
0.005130768 -0.03551847 0.07269493
0.006375551 -0.03593349 0.07267132
0.007928014 -0.03571296 0.07192641
0.009174585 -0.03612858 0.07190275
0.01042128 -0.03654417 0.07187909
0.01198089 -0.03632611 0.07113418
0.01322937 -0.03674233 0.07111049
0.01511109 -0.03589359 0.06964409
0.01668155 -0.0356791 0.06889898
0.01921654 -0.03357199 0.06598938
0.0211218 -0.03273106 0.0645225
0.02238643 -0.0331527 0.06449848
0.0239768 -0.03294486 0.06375295
0.02589834 -0.03210938 0.06228584
0.02782708 -0.03127623 0.06081849
0.03009415 -0.02981788 0.05862939
0.0423159 -0.01839322 0.04337496
0.04431331 -0.01758304 0.04190636
0.04597592 -0.01739925 0.04115939
0.04729843 -0.01784018 0.0411343
0.04994345 -0.018722 0.04108411
0.05126595 -0.01916292 0.04105902
0.05258846 -0.01960382 0.04103392
0.05391097 -0.02004474 0.04100883
0.05523342 -0.02048564 0.04098374
0.05619949 -0.02154583 0.04168081
0.05680376 -0.02322337 0.04310006
0.05812085 -0.02366248 0.04307503
0.05943793 -0.02410159 0.04305005
-0.0304302 -0.007059216 0.05533689
-0.02914202 -0.007488668 0.05531245
-0.02834886 -0.009226143 0.05673063
-0.0278123 -0.01161456 0.05887014
-0.0267843 -0.01269379 0.05956721
-0.02601284 -0.01442397 0.06098568
-0.02524865 -0.01615179 0.06240439
-0.02449167 -0.01787716 0.0638231
-0.02322519 -0.0182994 0.06379908
-0.02273917 -0.02067095 0.06593955
-0.02174008 -0.02174053 0.06663722
-0.02048081 -0.02216035 0.06661332
-0.01975274 -0.02387607 0.06803262
-0.01849705 -0.0242947 0.06800878
-0.01724142 -0.02471334 0.067985
-0.01598573 -0.02513194 0.06796116
-0.0147301 -0.02555057 0.06793731
-0.01374912 -0.02661419 0.06863528
-0.01277167 -0.02767655 0.06933331
-0.01151967 -0.02809399 0.06930953
-0.01026762 -0.0285114 0.06928581
-0.009579301 -0.03021386 0.07070586
-0.008330822 -0.03063008 0.07068217
-0.007367849 -0.03168765 0.07138044
-0.006121278 -0.03210324 0.07135677
-0.004874647 -0.03251886 0.07133311
-0.003918886 -0.03357404 0.07203165
-0.002674103 -0.03398904 0.07200801
-0.001429319 -0.03440404 0.07198441
-0.000184536 -0.03481907 0.07196078
0.001060307 -0.03523406 0.07193717
0.002605081 -0.03501254 0.07119119
0.003851652 -0.03542817 0.07116753
0.005098283 -0.03584376 0.0711439
0.006650209 -0.03562465 0.07039791
0.008512974 -0.03477269 0.06892943
0.009764969 -0.03519011 0.06890565
0.01101702 -0.03560755 0.06888193
0.01226902 -0.03602496 0.06885815
0.01383543 -0.03581068 0.0681119
0.01540554 -0.03559756 0.06736553
0.01666117 -0.0360162 0.06734169
0.01951575 -0.03328538 0.06370467
0.02110201 -0.03307775 0.06295794
0.02236849 -0.03349999 0.06293392
0.02461064 -0.03203797 0.06074172
0.02620959 -0.03183451 0.05999476
0.0281409 -0.03100544 0.05852497
0.03041017 -0.02955246 0.05633217
0.03269017 -0.02810308 0.0541392
0.03531533 -0.0260323 0.05122316
0.04064333 -0.01897052 0.04252321
0.04196042 -0.01940963 0.04249823
0.04395682 -0.01860225 0.04102719
0.04527748 -0.01904255 0.04100215
0.04694152 -0.01886076 0.04025394
0.04826403 -0.01930168 0.0402289
0.04958647 -0.01974258 0.04020375
0.05056024 -0.02080378 0.0409019
0.05188096 -0.02124408 0.04087687
0.05320168 -0.02168441 0.04085177
0.05452234 -0.02212471 0.04082674
0.0551312 -0.02380067 0.04224831
0.05644828 -0.02423978 0.04222333
0.05740583 -0.02529553 0.04292166
0.05872107 -0.02573404 0.04289669
-0.02931732 -0.004130572 0.05014503
-0.02801836 -0.00456363 0.05012035
-0.02795446 -0.008259684 0.05370808
-0.02765989 -0.0112977 0.05657363
-0.02712905 -0.01367953 0.05871689
-0.02635664 -0.01540691 0.06013781
-0.02533722 -0.01648173 0.06083626
-0.02432138 -0.01755539 0.06153482
-0.02356696 -0.01927677 0.06295598
-0.02256018 -0.02034739 0.06365472
-0.02181846 -0.02206457 0.06507617
-0.0205574 -0.02248499 0.06505227
-0.01956141 -0.023552 0.06575114
-0.0183022 -0.02397183 0.06572729
-0.01758033 -0.02568233 0.0671491
-0.01632464 -0.02610096 0.06712532
-0.01506901 -0.0265196 0.06710148
-0.01381338 -0.0269382 0.06707764
-0.01283371 -0.02799982 0.06777686
-0.01157987 -0.02841786 0.06775308
-0.01032603 -0.02883586 0.06772929
-0.009353518 -0.02989504 0.06842858
-0.008101463 -0.03031245 0.06840485
-0.007419348 -0.03200972 0.06982744
-0.006170988 -0.03242594 0.06980374
-0.004922509 -0.03284216 0.06978005
-0.003964543 -0.03389651 0.07047963
-0.002717853 -0.03431213 0.07045597
-0.001471281 -0.03472772 0.07043234
-0.0002246499 -0.03514335 0.07040867
0.001021981 -0.03555897 0.07038501
0.002268553 -0.03597456 0.07036138
0.003816426 -0.03575566 0.06961423
0.005064845 -0.03617188 0.06959054
0.00692296 -0.0353215 0.0681197
0.008481622 -0.03510621 0.06737238
0.009735465 -0.03552422 0.0673486
0.01098931 -0.03594226 0.06732482
0.01224315 -0.03636026 0.06730103
0.01381093 -0.03614795 0.06655347
0.01569796 -0.0353072 0.06508213
0.01790971 -0.03383973 0.06288677
0.0194937 -0.03363287 0.06213892
0.02076018 -0.03405511 0.06211489
0.02299541 -0.03259546 0.05991918
0.02426732 -0.03301951 0.05989504
0.02651882 -0.03156534 0.05769891
0.02812445 -0.03136569 0.05695075
0.03039408 -0.02991751 0.05475432
0.03466618 -0.02472723 0.04821318
0.03696823 -0.02328989 0.04601616
0.03995228 -0.02061 0.04237062
0.04126751 -0.02104852 0.04234564
0.04292202 -0.02086514 0.04159647
0.04423904 -0.02130425 0.0415715
0.04555613 -0.02174336 0.04154652
0.04687321 -0.02218246 0.04152149
0.0481903 -0.02262157 0.04149652
0.04950738 -0.02306068 0.04147154
0.05082446 -0.02349979 0.04144651
0.05214155 -0.02393886 0.04142153
0.05345863 -0.02437797 0.04139656
0.05477571 -0.02481708 0.04137158
0.05609274 -0.02525619 0.04134655
0.05705082 -0.02631053 0.04204613
0.05836606 -0.02674904 0.04202121
0.05968136 -0.02718753 0.04199624
-0.03024358 -0.00274092 0.04713422
-0.02942502 -0.00448063 0.04855675
-0.02836895 -0.00556612 0.04925567
-0.02780962 -0.00795278 0.05140203
-0.02651596 -0.008384049 0.05137748
-0.02647316 -0.01206529 0.05497169
-0.02594453 -0.01444173 0.05711865
-0.02491915 -0.01551694 0.05781817
-0.02415299 -0.01723915 0.05924159
-0.02313668 -0.01831138 0.05994135
-0.02186477 -0.01873541 0.05991721
-0.02137589 -0.02109861 0.06206489
-0.02010936 -0.02152085 0.06204081
-0.01910746 -0.02258825 0.06274086
-0.01837564 -0.02429903 0.06416494
-0.01711458 -0.02471948 0.06414104
-0.01585352 -0.0251399 0.06411707
-0.01486427 -0.0262031 0.06481731
-0.013605 -0.02662292 0.06479341
-0.01289666 -0.02832583 0.06621796
-0.01164103 -0.02874446 0.06619418
-0.01038533 -0.02916309 0.06617033
-0.009129703 -0.02958173 0.06614649
-0.008156776 -0.03063953 0.06684703
-0.006902933 -0.03105754 0.06682324
-0.00564909 -0.03147557 0.06679946
-0.004395247 -0.03189358 0.06677568
-0.003141403 -0.03231162 0.0667519
-0.00188756 -0.03272963 0.06672812
-0.0009272099 -0.0337832 0.06742883
0.0006201267 -0.03356567 0.06668049
0.00187397 -0.03398371 0.06665671
0.003127813 -0.03440171 0.06663293
0.004682422 -0.03418657 0.06588441
0.005938113 -0.03460521 0.06586057
0.007193744 -0.03502384 0.06583679
0.009061754 -0.03417984 0.06436336
0.01032102 -0.03459966 0.06433946
0.01189005 -0.03438938 0.06359065
0.01377428 -0.0335508 0.06211692
0.01503897 -0.03397244 0.0620929
0.01661885 -0.03376576 0.06134391
0.01851934 -0.03293261 0.05986995
0.02010828 -0.03272894 0.05912077
0.02138019 -0.03315297 0.05909663
0.02297455 -0.03295112 0.05834734
0.02489674 -0.0321252 0.0568729
0.02650011 -0.03192636 0.0561235
0.02777922 -0.03235281 0.05609924
0.02905834 -0.03277928 0.05607498
0.03530943 -0.02386242 0.04517138
0.03661567 -0.02429792 0.04514664
0.03892714 -0.02286839 0.0429458
0.0402388 -0.02330568 0.04292095
0.0422278 -0.02250203 0.04144514
0.04388356 -0.02232066 0.04069477
0.04520065 -0.02275977 0.04066974
0.04651773 -0.02319887 0.04064476
0.04783481 -0.02363798 0.04061979
0.0491519 -0.02407706 0.04059482
0.05046892 -0.02451617 0.04056978
0.05178607 -0.02495527 0.04054481
0.05310309 -0.02539438 0.04051983
0.05442023 -0.02583349 0.0404948
0.05538052 -0.02688706 0.04119557
0.05669582 -0.02732554 0.0411706
0.05729032 -0.02899054 0.04259735
0.05823982 -0.0300405 0.0432983
0.05882168 -0.03170124 0.04472524
0.06012797 -0.03213674 0.04470044
-0.03190011 -0.003312707 0.0462907
-0.03059566 -0.003747582 0.0462659
-0.0297761 -0.005484492 0.04769081
-0.02871954 -0.006568581 0.04839092
-0.02791268 -0.008301288 0.04981607
-0.02686512 -0.009382337 0.05051643
-0.02681994 -0.01305658 0.05411661
-0.02578682 -0.01413286 0.05481714
-0.02450407 -0.01456052 0.05479282
-0.02398658 -0.01692855 0.05694366
-0.02322304 -0.01864675 0.05836958
-0.02194935 -0.0190714 0.05834538
-0.02093613 -0.02014101 0.05904639
-0.02045119 -0.02249822 0.06119776
-0.01918471 -0.02292046 0.06117374
-0.01818419 -0.02398586 0.06187499
-0.01691949 -0.02440751 0.06185097
-0.01619387 -0.02611309 0.0632776
-0.01493281 -0.02653351 0.0632537
-0.01394486 -0.02759472 0.06395519
-0.01268566 -0.02801454 0.06393129
-0.01142639 -0.02843437 0.06390738
-0.01016712 -0.02885419 0.06388348
-0.008907855 -0.02927402 0.06385958
-0.008212924 -0.03096932 0.06528682
-0.006957293 -0.03138795 0.06526297
-0.005701661 -0.03180659 0.06523919
-0.00444603 -0.03222522 0.06521535
-0.003190398 -0.03264382 0.06519151
-0.001352251 -0.031793 0.06371623
-0.0006790757 -0.03348109 0.06514388
0.0002816916 -0.03453326 0.06584585
0.001535535 -0.0349513 0.06582206
0.003087878 -0.03473696 0.06507242
0.005244315 -0.03326041 0.06287086
0.00650537 -0.03368086 0.0628469
0.007462621 -0.03473181 0.06354898
0.009027541 -0.0345217 0.06279904
0.0102886 -0.03494215 0.06277514
0.01216829 -0.03410512 0.06129903
0.013744 -0.03389865 0.0605489
0.01501054 -0.03432089 0.06052488
0.01690644 -0.03348932 0.05904853
0.01849306 -0.03328642 0.05829823
0.01976502 -0.03371048 0.05827409
0.02135706 -0.0335094 0.05752367
0.0232746 -0.0326851 0.05604684
0.02455193 -0.03311095 0.05602258
0.02582932 -0.03353679 0.05599838
0.02710664 -0.03396264 0.05597413
0.02838397 -0.03438848 0.05594993
0.03495687 -0.02487046 0.04430187
0.03692865 -0.02406421 0.04282403
0.03857309 -0.02388063 0.04207265
0.03988475 -0.02431792 0.0420478
0.04119641 -0.02475521 0.04202288
0.0431881 -0.02395555 0.04054463
0.04450333 -0.02439404 0.04051965
0.04581863 -0.02483255 0.04049474
0.04713392 -0.02527106 0.04046977
0.04844916 -0.02570954 0.04044479
0.05239499 -0.02702504 0.04036993
0.05371022 -0.02746356 0.04034501
0.05502552 -0.02790207 0.04032004
0.05634081 -0.02834055 0.04029506
0.05693626 -0.03000277 0.04172426
0.05824792 -0.03044006 0.04169935
0.05919611 -0.031488 0.04240155
0.06050599 -0.03192472 0.0423767
-0.03225219 -0.00431934 0.04542238
-0.03094774 -0.004754215 0.04539758
-0.03012723 -0.006488353 0.04682493
-0.0290702 -0.007571042 0.04752624
-0.02826232 -0.009300947 0.04895377
-0.02721429 -0.01038063 0.04965532
-0.02666825 -0.01275346 0.05180913
-0.02588207 -0.01447618 0.05323714
-0.02485031 -0.01555043 0.05393893
-0.02407682 -0.0172689 0.05536711
-0.02305406 -0.01834014 0.05606914
-0.02177674 -0.01876599 0.05604488
-0.02101946 -0.02047899 0.05747336
-0.02026939 -0.02218962 0.05890197
-0.01899928 -0.02261308 0.05887789
-0.01826006 -0.02432007 0.06030661
-0.01699358 -0.02474231 0.06028259
-0.01599616 -0.02580512 0.06098515
-0.01473147 -0.02622676 0.06096113
-0.0140121 -0.02792713 0.06239033
-0.01302552 -0.02898633 0.06309301
-0.01176625 -0.02940616 0.06306916
-0.01050699 -0.02982599 0.06304526
-0.00924778 -0.03024581 0.06302136
-0.007988453 -0.03066564 0.06299746
-0.006729245 -0.03108549 0.06297356
-0.005469918 -0.03150532 0.06294966
-0.004210711 -0.03192514 0.06292576
-0.002951443 -0.03234497 0.06290185
-0.001401424 -0.03213143 0.06215101
-0.0004329085 -0.03318462 0.06285411
0.0002377033 -0.03486872 0.06428421
0.002381802 -0.03339273 0.06207925
0.003642857 -0.03381318 0.06205529
0.005503476 -0.03297293 0.06057715
0.006768167 -0.03339458 0.06055319
0.008032799 -0.03381619 0.06052917
0.00929749 -0.03423783 0.06050521
0.01056218 -0.03465948 0.06048119
0.01213568 -0.03445378 0.05972987
0.01402342 -0.03362259 0.05825126
0.01529348 -0.03404605 0.05822718
0.01687789 -0.03384393 0.05747569
0.01846576 -0.03364307 0.05672413
0.01973951 -0.03406772 0.05669993
0.02101326 -0.03449237 0.05667579
0.02292985 -0.03367081 0.05519658
0.02453041 -0.03347415 0.05444479
0.02580959 -0.03390062 0.05442053
0.0270887 -0.03432706 0.05439627
0.03329802 -0.02544302 0.04345715
0.03460431 -0.02587852 0.04343235
0.03657508 -0.02507505 0.04195213
0.03821909 -0.02489284 0.04119956
0.03919482 -0.02594844 0.04190242
0.04084235 -0.02576745 0.0411498
0.04215401 -0.02620474 0.04112488
0.04346567 -0.02664202 0.04109997
0.05658227 -0.03101501 0.04085112
0.05789393 -0.0314523 0.0408262
0.05884254 -0.03249884 0.0415296
0.06015241 -0.03293553 0.04150474
-0.03260428 -0.005325973 0.04455405
-0.03129983 -0.005760878 0.04452926
-0.03047836 -0.007492185 0.045959
-0.02942079 -0.008573502 0.04666156
-0.02812183 -0.00900659 0.04663688
-0.02756345 -0.01137888 0.04879421
-0.02701592 -0.01374757 0.05095166
-0.02622879 -0.01546746 0.05238205
-0.02494425 -0.01589572 0.05235767
-0.0239138 -0.01696801 0.05306071
-0.02314293 -0.01868248 0.0544914
-0.02186376 -0.01910892 0.05446708
-0.02084416 -0.02017757 0.05517036
-0.02035087 -0.02252817 0.05732894
-0.01907897 -0.0229522 0.0573048
-0.01807201 -0.02401668 0.05800831
-0.01680189 -0.02444011 0.05798423
-0.01606894 -0.02614191 0.05941552
-0.01507282 -0.02720273 0.06011927
-0.01380813 -0.02762434 0.06009525
-0.01309144 -0.02932075 0.06152695
-0.01183033 -0.02974117 0.06150299
-0.01056933 -0.03016162 0.06147909
-0.009308219 -0.03058204 0.06145513
-0.008047163 -0.03100246 0.06143123
-0.006786108 -0.03142291 0.06140727
-0.005809844 -0.03247708 0.06211144
-0.004263937 -0.03226376 0.06135941
-0.003002882 -0.03268421 0.0613355
-0.001741767 -0.03310463 0.06131154
-0.0004807711 -0.03352505 0.06128764
0.000780344 -0.0339455 0.06126368
0.002041399 -0.03436592 0.06123978
0.003897429 -0.03352726 0.05975932
0.00516212 -0.0339489 0.0597353
0.006426811 -0.03437054 0.05971134
0.007994413 -0.03416443 0.05895889
0.009260893 -0.03458667 0.05893487
0.01052737 -0.03500891 0.05891085
0.0127188 -0.03355336 0.05670142
0.01399076 -0.03397739 0.05667728
0.01557457 -0.0337767 0.05592459
0.01684827 -0.03420135 0.05590039
0.01812202 -0.03462601 0.05587626
0.02003038 -0.03380483 0.05439478
0.02130771 -0.03423071 0.05437052
0.02290606 -0.03403485 0.0536176
0.02418518 -0.03446129 0.05359334
0.0254643 -0.03488776 0.05356908
0.02674341 -0.0353142 0.05354476
0.03294551 -0.02645105 0.04258764
0.03425169 -0.02688655 0.04256284
0.03622156 -0.02608585 0.04108018
0.03753138 -0.02652258 0.04105532
0.03884125 -0.02695924 0.04103047
0.04015112 -0.02739596 0.04100561
0.04146099 -0.02783266 0.04098076
0.0427708 -0.02826935 0.0409559
0.04442334 -0.02809155 0.04020196
0.04539049 -0.02914274 0.04090619
0.04670036 -0.02957943 0.04088134
0.04801023 -0.03001612 0.04085648
0.04966992 -0.02984074 0.04010242
0.05098158 -0.03027803 0.04007751
0.05229324 -0.03071535 0.04005265
0.0536049 -0.03115264 0.04002774
0.05491656 -0.03158993 0.04000288
0.05586934 -0.03263628 0.04070741
0.05717915 -0.03307298 0.04068249
0.05848902 -0.03350967 0.0406577
-0.02977145 -0.009575963 0.04579681
-0.02847242 -0.01000905 0.04577214
-0.02791262 -0.01237717 0.0479331
-0.02736366 -0.01474166 0.05009419
-0.02607548 -0.01517114 0.05006969
-0.02478731 -0.01560059 0.05004525
-0.02400637 -0.0173153 0.05147821
-0.02297729 -0.01838559 0.0521825
-0.02169454 -0.01881325 0.05215812
-0.02092993 -0.02052251 0.05359137
-0.02043331 -0.02286953 0.05575341
-0.01915962 -0.02329415 0.05572927
-0.01788586 -0.0237188 0.05570507
-0.01687843 -0.02478185 0.05640984
-0.01587462 -0.02584371 0.05711466
-0.01514429 -0.02754152 0.05854839
-0.01387781 -0.02796376 0.05852437
-0.0128848 -0.02902198 0.05922943
-0.01162016 -0.02944359 0.05920541
-0.01035547 -0.02986524 0.05918139
-0.009090781 -0.03028688 0.05915743
-0.00782609 -0.03070852 0.05913341
-0.006561399 -0.03113014 0.05910945
-0.005296707 -0.03155178 0.05908543
-0.004032016 -0.03197342 0.05906141
-0.002767324 -0.03239506 0.05903745
-0.001502633 -0.03281671 0.05901343
-0.0002379417 -0.03323832 0.05898947
0.001320064 -0.0330306 0.058236
0.002291381 -0.03408161 0.05894142
0.003556073 -0.03450322 0.05891746
0.005119562 -0.03429732 0.05816394
0.006386042 -0.03471956 0.05813986
0.007652521 -0.0351418 0.05811584
0.009527445 -0.03431258 0.05663264
0.01079756 -0.03473604 0.05660856
0.01268333 -0.03391036 0.05512506
0.01395702 -0.03433502 0.05510086
0.01523077 -0.03475967 0.05507672
0.01713097 -0.03393888 0.05359298
0.0184083 -0.03436473 0.05356872
0.01968563 -0.03479058 0.05354446
0.0212816 -0.03459552 0.0527904
0.02320176 -0.03378132 0.05130625
0.02448452 -0.03420898 0.05128187
0.02576721 -0.03463665 0.05125755
0.03128666 -0.02702361 0.04174286
0.03259289 -0.02745908 0.04171807
0.03389913 -0.02789459 0.04169333
0.03586799 -0.02709669 0.04020828
0.03717786 -0.02753338 0.04018342
0.03848767 -0.02797008 0.04015857
0.03979754 -0.02840677 0.04013371
0.04110742 -0.02884346 0.04010886
0.04241729 -0.02928019 0.040084
0.0437271 -0.02971688 0.04005915
0.04503697 -0.03015357 0.04003429
0.04634678 -0.03059027 0.04000944
-0.02746361 -0.01509276 0.04850692
-0.02642322 -0.01616523 0.04921222
-0.02513504 -0.01659471 0.04918778
-0.02435315 -0.01830661 0.05062312
-0.02306855 -0.01873487 0.05059874
-0.02204072 -0.01980317 0.05130422
-0.02075803 -0.0202308 0.0512799
-0.01999605 -0.02193609 0.0527156
-0.01897907 -0.02300075 0.05342132
-0.01822966 -0.02470174 0.05485719
-0.01695597 -0.0251264 0.05483305
-0.01594985 -0.02618745 0.05553901
-0.01467794 -0.02661151 0.05551487
-0.01367724 -0.02767074 0.05622101
-0.01240712 -0.0280942 0.05619687
-0.01168668 -0.02978557 0.05763328
-0.01069677 -0.0308412 0.05833954
-0.009153724 -0.03063005 0.05758518
-0.007887185 -0.03105229 0.05756116
-0.006620705 -0.03147453 0.05753714
-0.005354226 -0.03189677 0.05751312
-0.004087687 -0.03231901 0.0574891
-0.002821207 -0.03274125 0.05746502
-0.001554728 -0.03316349 0.057441
-0.0002882481 -0.03358573 0.05741698
0.0009782314 -0.03400797 0.05739295
0.002244711 -0.03443021 0.05736893
0.00351119 -0.03485245 0.05734485
0.005374312 -0.03402239 0.05585951
0.006644428 -0.03444585 0.05583537
0.007914543 -0.03486928 0.05581129
0.009488344 -0.03466836 0.05505633
0.01106584 -0.03446865 0.05430132
0.01233953 -0.0348933 0.05427718
0.01423156 -0.03407291 0.05279118
0.01550889 -0.03449875 0.05276692
0.01678622 -0.0349246 0.05274266
0.01806355 -0.03535047 0.05271846
0.01934087 -0.03577632 0.0526942
0.02093637 -0.03558263 0.05193889
0.02221549 -0.0360091 0.05191463
0.0270344 -0.02963397 0.04384756
0.02962786 -0.02759618 0.04089814
0.0309341 -0.02803165 0.04087335
0.03224033 -0.02846715 0.04084855
0.03354657 -0.02890262 0.04082376
0.04399645 -0.03238654 0.04062551
0.04530275 -0.03282204 0.04060072
0.04660892 -0.03325754 0.04057592
-0.02781183 -0.01608825 0.04764825
-0.0265218 -0.01651832 0.04762375
-0.02548271 -0.01758879 0.04833031
-0.02419454 -0.01801825 0.04830581
-0.02341533 -0.01972619 0.04974365
-0.02213073 -0.02015445 0.04971927
-0.02084619 -0.02058271 0.0496949
-0.01982152 -0.02164838 0.05040169
-0.01906216 -0.02334967 0.05183983
-0.0180465 -0.02441233 0.0525468
-0.01676917 -0.02483818 0.0525226
-0.01549184 -0.02526402 0.05249834
-0.01421452 -0.02568987 0.05247408
-0.01347864 -0.0273833 0.05391264
-0.01220489 -0.02780795 0.0538885
-0.01120549 -0.02886519 0.05459583
-0.01020974 -0.02992123 0.05530322
-0.008939624 -0.03034469 0.05527914
-0.007669568 -0.03076813 0.055255
-0.006399393 -0.03119159 0.05523092
-0.005129337 -0.03161502 0.05520684
-0.004429579 -0.03329638 0.05664599
-0.003163099 -0.03371862 0.05662197
-0.001319051 -0.03288534 0.05513453
-4.887581e-05 -0.0333088 0.05511039
