# .PCD v.7 - Point Cloud Data file format
FIELDS x y z
SIZE 4 4 4
TYPE F F F
COUNT 1 1 1
WIDTH 1419
HEIGHT 1
VIEWPOINT 0 0 0 1 0 0 0
POINTS 1419
DATA ascii
-0.009944975 -0.01185703 0.1506929
-0.008483171 -0.01152071 0.1500164
-0.007325053 -0.01190683 0.1499944
-0.006166995 -0.01229292 0.1499725
-0.004697919 -0.01195902 0.1492959
-0.002912462 -0.01090688 0.1479646
-0.001748979 -0.01129478 0.1479425
-0.0002690554 -0.01096445 0.1472657
0.0008962154 -0.01135299 0.1472436
0.002061546 -0.01174149 0.1472215
0.003226876 -0.01212999 0.1471994
0.004392147 -0.0125185 0.1471773
0.005557477 -0.012907 0.1471552
0.007050037 -0.01258093 0.1464782
0.008217156 -0.01297003 0.146456
0.00971514 -0.01264578 0.1457789
0.01088405 -0.01303551 0.1457567
0.01205295 -0.01342523 0.1457345
0.01322192 -0.01381493 0.1457123
0.0147289 -0.01349366 0.1450351
0.01657939 -0.01246318 0.1437025
0.01775372 -0.0128547 0.1436802
0.01892805 -0.01324621 0.1436579
0.02010244 -0.01363772 0.1436357
0.02162385 -0.01332131 0.1429581
0.02280003 -0.01371342 0.1429358
0.02397621 -0.01410556 0.1429135
-0.05301166 0.06974155 0.09679142
-0.05170542 0.06930608 0.09676665
-0.05039918 0.0688706 0.09674186
-0.04909295 0.06843507 0.09671706
-0.04778671 0.0679996 0.09669226
-0.01545006 -0.009373784 0.1487219
-0.01458621 -0.01048395 0.1493554
-0.01342809 -0.01087004 0.1493334
-0.01226997 -0.01125616 0.1493115
-0.01111192 -0.01164225 0.1492895
-0.009953856 -0.01202834 0.1492675
-0.008795738 -0.01241443 0.1492455
-0.007330775 -0.0120807 0.1485678
-0.006170869 -0.01246741 0.1485458
-0.004390001 -0.01141685 0.1472121
-0.003226519 -0.01180476 0.1471901
-0.001748919 -0.01147527 0.1465121
-0.0005836487 -0.01186377 0.14649
0.0005816817 -0.01225227 0.1464679
0.002066493 -0.01192516 0.1457899
0.003233671 -0.01231426 0.1457677
0.00440079 -0.01270339 0.1457456
0.005892813 -0.01237875 0.1450673
0.00706172 -0.01276845 0.1450451
0.008230686 -0.01315814 0.1450229
0.009729981 -0.01283586 0.1443446
0.01090068 -0.01322618 0.1443224
0.01207143 -0.0136165 0.1443002
0.01324213 -0.01400679 0.144278
0.01508808 -0.01297793 0.1429431
0.01626241 -0.01336944 0.1429208
0.01743674 -0.01376095 0.1428985
0.01861107 -0.01415247 0.1428762
0.01978546 -0.01454401 0.1428539
0.0213064 -0.01422897 0.1421752
0.02248257 -0.01462108 0.1421528
0.02365875 -0.01501322 0.1421306
-0.0587908 0.06972212 0.09667596
-0.05618191 0.06885231 0.09662646
-0.05467045 0.06916898 0.09594667
-0.05357301 0.06798255 0.09657696
-0.05205798 0.06829804 0.09589711
-0.05075175 0.06786251 0.09587234
-0.04901707 0.06892532 0.09453714
-0.0477072 0.0684886 0.09451228
-0.01576316 -0.01026893 0.1479498
-0.01401216 -0.00921151 0.1466143
-0.01284862 -0.009599417 0.1465922
-0.01228344 -0.01142901 0.1478837
-0.01112354 -0.01181573 0.1478617
-0.009358108 -0.01076314 0.146526
-0.008194625 -0.01115105 0.1465039
-0.007031083 -0.01153895 0.1464818
-0.005559444 -0.01120901 0.1458028
-0.004394114 -0.01159751 0.1457807
-0.002916992 -0.01126942 0.1451015
-0.001749873 -0.01165852 0.1450794
-0.0002673268 -0.01133224 0.1444001
0.0009015799 -0.01172197 0.1443779
0.002070546 -0.01211166 0.1443557
0.003560305 -0.01178777 0.1436763
0.004730999 -0.01217809 0.1436541
0.005901754 -0.01256841 0.1436319
0.007725 -0.01153508 0.142295
0.008899331 -0.01192659 0.1422727
0.01007366 -0.0123181 0.1422505
0.01157975 -0.01199967 0.1415708
0.01275587 -0.01239178 0.1415485
0.01426733 -0.0120751 0.1408686
0.01544523 -0.01246783 0.1408463
0.01662326 -0.01286054 0.1408239
0.01780117 -0.01325327 0.1408016
0.01897913 -0.01364601 0.1407792
0.0201571 -0.01403871 0.1407569
0.02133507 -0.01443145 0.1407345
0.022861 -0.01411957 0.1400544
0.02404076 -0.0145129 0.1400321
-0.06175172 0.0695852 0.09585714
-0.06044728 0.06915033 0.09583238
-0.05914283 0.06871545 0.09580764
-0.05783844 0.06828058 0.09578288
-0.05653399 0.0678457 0.09575814
-0.05522954 0.06741077 0.09573337
-0.05434179 0.06547678 0.09702125
-0.05262071 0.06654102 0.09568387
-0.05110431 0.06685448 0.0950028
-0.04979813 0.06641901 0.094978
-0.04806077 0.06747776 0.09364039
-0.0143168 -0.006836534 0.1432303
-0.01373613 -0.008668125 0.1445239
-0.01286584 -0.009777248 0.1451597
-0.01170051 -0.01016578 0.1451376
-0.01083565 -0.01127312 0.1457735
-0.00936991 -0.01094279 0.1450934
-0.008204579 -0.01133129 0.1450713
-0.007039249 -0.01171979 0.1450492
-0.005873919 -0.01210833 0.145027
-0.004399121 -0.01178098 0.1443467
-0.002920747 -0.01145488 0.1436663
-0.001751781 -0.01184461 0.1436442
-0.0002679229 -0.0115203 0.1429637
0.0009027719 -0.01191062 0.1429415
0.002710581 -0.01087525 0.1416024
0.003884971 -0.01126677 0.1415802
0.005059302 -0.01165828 0.1415579
0.006233692 -0.01204979 0.1415356
0.007733762 -0.01173094 0.1408548
0.008909941 -0.01212305 0.1408325
0.01008606 -0.01251519 0.1408102
0.0115934 -0.01219869 0.1401292
0.01277137 -0.01259142 0.1401069
0.01428413 -0.01227671 0.1394258
0.01546395 -0.01267004 0.1394034
0.0166437 -0.01306337 0.139381
0.01782346 -0.0134567 0.1393586
0.01900327 -0.01385003 0.1393363
0.02018297 -0.01424336 0.1393139
0.02136278 -0.0146367 0.1392915
0.02254254 -0.01503 0.1392691
0.02372229 -0.01542333 0.1392467
-0.06900191 0.06924343 0.09642684
-0.06601709 0.06988323 0.09506309
-0.06471264 0.06944835 0.09503832
-0.06340826 0.06901348 0.09501356
-0.06210381 0.0685786 0.09498882
-0.06079936 0.06814367 0.09496406
-0.05949497 0.06770879 0.09493932
-0.05819052 0.06727391 0.09491456
-0.05729455 0.06534028 0.0962047
-0.05599374 0.0649066 0.09618002
-0.05469292 0.06447291 0.09615535
-0.05339205 0.06403923 0.09613067
-0.05166835 0.06509948 0.09479082
-0.0503639 0.0646646 0.09476605
-0.04905951 0.06422973 0.09474128
-0.01404727 -0.006300241 0.1411327
-0.01287293 -0.006691754 0.1411104
-0.01288402 -0.00995791 0.1437249
-0.0120151 -0.01106507 0.1443619
-0.01084971 -0.01145357 0.1443398
-0.009684443 -0.01184207 0.1443177
-0.008215547 -0.01151434 0.1436363
-0.007048368 -0.01190343 0.1436141
-0.00588131 -0.01229256 0.143592
-0.004405141 -0.01196727 0.1429104
-0.002925396 -0.01164314 0.1422288
-0.001754642 -0.01203346 0.1422066
4.49419e-05 -0.01099849 0.1408653
0.001219273 -0.01139 0.140843
0.002393663 -0.01178151 0.1408207
0.003887832 -0.01146224 0.1401388
0.005064011 -0.01185435 0.1401165
0.006240129 -0.01224649 0.1400942
0.00774157 -0.01192957 0.1394121
0.008919537 -0.01232231 0.1393898
0.0100975 -0.01271504 0.1393674
0.01160622 -0.01240051 0.1386852
0.01278591 -0.01279384 0.1386628
0.01396573 -0.01318717 0.1386405
0.0158177 -0.01216972 0.1372983
0.01700109 -0.01256424 0.1372758
0.01818448 -0.01295877 0.1372534
0.01936787 -0.01335332 0.1372309
0.0205512 -0.01374784 0.1372085
0.0217346 -0.01414236 0.137186
0.02291799 -0.01453692 0.1371635
0.02410138 -0.01493144 0.1371411
-0.06935298 0.06823957 0.09556094
-0.06805217 0.06780589 0.09553626
-0.06636918 0.06887662 0.09419477
-0.06506473 0.06844169 0.09417
-0.06376028 0.06800681 0.09414524
-0.06245589 0.06757194 0.0941205
-0.06115144 0.06713706 0.09409577
-0.0602473 0.06520379 0.09538817
-0.05894649 0.0647701 0.0953635
-0.05764568 0.06433642 0.09533879
-0.05634487 0.06390274 0.09531412
-0.055044 0.06346905 0.09528944
-0.05374318 0.06303537 0.09526473
-0.05202043 0.06409281 0.0939225
-0.05071604 0.06365794 0.09389773
-0.04941159 0.06322306 0.09387299
-0.01436424 -0.0072065 0.1403509
-0.01318991 -0.007598042 0.1403286
-0.01290315 -0.01014137 0.1422875
-0.01203191 -0.01124769 0.1429258
-0.01086479 -0.01163679 0.1429037
-0.009697676 -0.01202589 0.1428815
-0.008227468 -0.01170021 0.1421988
-0.007058501 -0.01208991 0.1421766
-0.005889595 -0.01247963 0.1421545
-0.003795087 -0.01073018 0.1401504
-0.002620697 -0.01112169 0.1401281
-0.001446366 -0.01151323 0.1401058
-0.0002720356 -0.01190475 0.1400836
0.001218081 -0.01158565 0.1394005
0.002394199 -0.01197776 0.1393782
0.003570378 -0.01236987 0.1393559
0.005067706 -0.01205319 0.1386727
0.006245673 -0.01244593 0.1386504
0.007748425 -0.01213098 0.1379671
0.00892818 -0.01252431 0.1379447
0.01010799 -0.01291764 0.1379223
0.01128775 -0.01331097 0.1378999
0.0124675 -0.0137043 0.1378775
0.01431489 -0.0126884 0.136533
0.01549828 -0.01308295 0.1365106
0.01668167 -0.01347747 0.1364881
0.01786506 -0.01387203 0.1364656
0.01904845 -0.01426655 0.1364432
0.02023184 -0.01466107 0.1364207
0.02141523 -0.0150556 0.1363983
0.02259862 -0.01545012 0.1363758
0.02378201 -0.01584467 0.1363533
-0.06970412 0.06723571 0.09469503
-0.0684033 0.06680202 0.09467036
-0.06710249 0.06636834 0.09464568
-0.06541681 0.06743509 0.09330168
-0.06411242 0.06700021 0.09327692
-0.06280798 0.06656528 0.09325218
-0.06189919 0.06463361 0.09454694
-0.06059837 0.06419992 0.09452224
-0.05929756 0.06376624 0.09449756
-0.05799675 0.06333256 0.09447289
-0.05669594 0.06289887 0.09444821
-0.05539513 0.06246519 0.09442353
-0.05409431 0.06203151 0.09439883
-0.0527935 0.06159782 0.09437415
-0.05106807 0.06265134 0.09302941
-0.04954958 0.06295937 0.09234464
-0.04824334 0.0625239 0.09231988
-0.0143894 -0.007395715 0.1389077
-0.01321328 -0.007787824 0.1388854
-0.0129233 -0.01032758 0.1408479
-0.01175255 -0.01071787 0.1408256
-0.01058185 -0.01110822 0.1408034
-0.009411097 -0.01149851 0.1407812
-0.008240342 -0.01188883 0.140759
-0.006460786 -0.01085341 0.1394132
-0.005286396 -0.01124489 0.1393909
-0.003804028 -0.01092482 0.1387069
-0.002318025 -0.01060587 0.1380227
-0.001451731 -0.01170906 0.1386622
-0.0002755523 -0.01210117 0.1386399
0.001215875 -0.01178408 0.1379556
0.002393842 -0.01217678 0.1379333
0.003890693 -0.01186144 0.1372489
0.005070448 -0.01225477 0.1372265
0.006250262 -0.01264811 0.1372041
0.007429957 -0.01304144 0.1371817
0.009261966 -0.01202351 0.1358351
0.01044536 -0.01241806 0.1358126
0.01162875 -0.01281258 0.1357902
0.01281214 -0.01320714 0.1357677
0.01399553 -0.01360166 0.1357453
0.01517892 -0.01399618 0.1357228
0.01636231 -0.01439071 0.1357003
0.01754564 -0.01478523 0.1356779
0.01872903 -0.01517978 0.1356554
0.01991242 -0.01557431 0.135633
0.02109581 -0.01596883 0.1356105
0.0222792 -0.01636338 0.135588
0.02346253 -0.01675791 0.1355656
-0.06875443 0.06579816 0.09380442
-0.06745362 0.06536448 0.09377974
-0.06576896 0.06642842 0.09243336
-0.06485194 0.06449711 0.09373039
-0.06355113 0.06406343 0.09370571
-0.06225032 0.06362975 0.09368104
-0.0609495 0.06319606 0.09365633
-0.05964869 0.06276238 0.09363165
-0.05834788 0.0623287 0.09360698
-0.05704707 0.06189501 0.09358227
-0.05574626 0.06146133 0.0935576
-0.05444539 0.06102765 0.09353292
-0.0527246 0.06207955 0.09218585
-0.05120838 0.06238681 0.09149992
-0.04990214 0.06195134 0.09147513
-0.04859591 0.06151587 0.09145033
-0.0149982 -0.009019017 0.1387875
-0.01382381 -0.00941056 0.1387652
-0.01323926 -0.01123103 0.1400685
-0.01206851 -0.01162136 0.1400463
-0.01030076 -0.0105851 0.1386983
-0.009126425 -0.01097661 0.1386761
-0.007952094 -0.01136816 0.1386538
-0.00647378 -0.01104823 0.1379686
-0.005297661 -0.01144034 0.1379462
-0.003813922 -0.01112223 0.1372609
-0.002635956 -0.01151493 0.1372386
-0.001457989 -0.01190767 0.1372162
-0.0002800226 -0.01230037 0.1371939
0.001212716 -0.01198524 0.1365083
0.002392471 -0.01237857 0.1364859
0.003572226 -0.01277187 0.1364635
0.00475204 -0.01316521 0.1364412
0.005931795 -0.01355854 0.1364188
0.007759213 -0.01254222 0.1350698
0.008942544 -0.01293674 0.1350473
0.01012594 -0.01333129 0.1350249
0.01130933 -0.01372582 0.1350024
0.01249272 -0.01412034 0.13498
0.01367611 -0.01451486 0.1349575
0.01485944 -0.01490939 0.1349351
0.01604283 -0.01530394 0.1349126
0.01722622 -0.01569846 0.1348901
0.01840961 -0.01609302 0.1348677
0.019593 -0.01648754 0.1348452
0.02077639 -0.01688206 0.1348228
0.02195978 -0.01727659 0.1348003
0.02314317 -0.01767111 0.1347779
-0.06929338 0.06404573 0.09360045
-0.06780469 0.06436062 0.09291384
-0.06650388 0.06392694 0.09288916
-0.06520307 0.06349325 0.09286448
-0.06390226 0.06305957 0.09283978
-0.06260145 0.06262589 0.0928151
-0.06130064 0.0621922 0.09279042
-0.05999982 0.06175852 0.09276575
-0.05869901 0.06132483 0.09274107
-0.0573982 0.06089115 0.09271637
-0.05609733 0.06045747 0.09269169
-0.05438113 0.06150776 0.09134227
-0.05307668 0.06107289 0.09131753
-0.051561 0.06137878 0.09063038
-0.0502547 0.06094331 0.09060562
-0.04894847 0.06050783 0.09058082
-0.0150243 -0.009211034 0.1373419
-0.01384819 -0.009603143 0.1373196
-0.01296645 -0.01070833 0.1379612
-0.01179206 -0.01109985 0.1379389
-0.01061773 -0.01149136 0.1379166
-0.009443402 -0.01188287 0.1378943
-0.007967412 -0.01156375 0.137208
-0.006487846 -0.01124582 0.1365215
-0.00530982 -0.01163855 0.1364991
-0.00382483 -0.01132238 0.1358125
-0.002953887 -0.01242399 0.1364544
-0.00177598 -0.01281673 0.1364321
-0.0005979538 -0.01320943 0.1364097
0.0008943081 -0.01289567 0.135723
0.002074063 -0.013289 0.1357006
0.003253818 -0.01368234 0.1356782
0.004433572 -0.01407564 0.1356558
0.005613327 -0.01446897 0.1356334
0.007439733 -0.01345545 0.1342821
0.008623123 -0.01384997 0.1342596
0.009806514 -0.01424453 0.1342371
0.0109899 -0.01463905 0.1342147
0.0121733 -0.0150336 0.1341922
0.01335669 -0.01542813 0.1341698
0.01454008 -0.01582265 0.1341473
0.0160594 -0.01551795 0.13346
0.01724458 -0.01591307 0.1334376
0.01842976 -0.01630822 0.1334151
0.01927358 -0.01740077 0.1340575
0.02080017 -0.01709849 0.1333701
0.02198535 -0.01749361 0.1333476
0.02317053 -0.01788872 0.1333251
-0.06964397 0.06304324 0.09273577
-0.06834495 0.06261015 0.09271109
-0.06685501 0.06292307 0.09202325
-0.06555414 0.06248939 0.09199858
-0.06425333 0.06205571 0.09197387
-0.06295252 0.06162202 0.09194919
-0.06165171 0.06118834 0.09192452
-0.06035089 0.06075466 0.09189981
-0.05905008 0.06032097 0.09187514
-0.05774927 0.05988729 0.09185046
-0.05644846 0.05945361 0.09182578
-0.05473322 0.06050116 0.09047395
-0.05342877 0.06006622 0.09044921
-0.05212438 0.05963135 0.09042445
-0.05081993 0.05919647 0.09039971
-0.04951549 0.0587616 0.09037495
-0.01534182 -0.01011866 0.1365589
-0.0135814 -0.009086192 0.1352063
-0.01328343 -0.01161459 0.1371795
-0.01181334 -0.01129505 0.136492
-0.01063716 -0.01168716 0.1364697
-0.009461045 -0.0120793 0.1364474
-0.007983685 -0.01176214 0.1357597
-0.006502748 -0.01144618 0.1350719
-0.005322993 -0.01183948 0.1350496
-0.004143238 -0.01223281 0.1350272
-0.002963424 -0.01262614 0.1350048
-0.001783729 -0.01301947 0.1349824
-0.0006039143 -0.0134128 0.13496
0.0005758405 -0.0138061 0.1349376
0.001755595 -0.01419944 0.1349152
0.00293541 -0.01459277 0.1348929
0.004115164 -0.0149861 0.1348705
0.005294919 -0.01537943 0.1348481
0.007120371 -0.01436868 0.1334943
0.008303761 -0.01476324 0.1334718
0.009487152 -0.01515776 0.1334494
0.01067054 -0.01555228 0.1334269
0.01185387 -0.01594681 0.1334045
0.01303726 -0.01634133 0.133382
0.01422065 -0.01673588 0.1333596
0.0157395 -0.01643258 0.1326711
0.01692474 -0.0168277 0.1326486
0.01810992 -0.01722285 0.1326261
0.0192951 -0.01761797 0.1326036
0.02048028 -0.01801312 0.1325811
0.02166545 -0.01840824 0.1325586
0.02285063 -0.01880336 0.1325362
-0.06999457 0.06204075 0.09187102
-0.06869555 0.06160772 0.09184638
-0.06739658 0.06117463 0.09182173
-0.06590527 0.06148553 0.09113264
-0.06460446 0.06105185 0.09110796
-0.06330365 0.06061816 0.09108329
-0.06200284 0.06018448 0.09105861
-0.06070203 0.0597508 0.09103391
-0.05940121 0.05931711 0.09100923
-0.05810034 0.05888343 0.09098455
-0.05679953 0.05844975 0.09095985
-0.0550853 0.0594945 0.08960563
-0.05378085 0.05905962 0.08958089
-0.05226612 0.05936271 0.08889136
-0.05095989 0.05892724 0.08886656
-0.04965365 0.05849171 0.0888418
-0.0138998 -0.009996653 0.1344209
-0.01360041 -0.01252085 0.1363977
-0.0121308 -0.01220271 0.135709
-0.01095462 -0.01259482 0.1356868
-0.0097785 -0.01298696 0.1356644
-0.00800097 -0.01196328 0.134309
-0.006821215 -0.01235661 0.1342866
-0.00564146 -0.01274991 0.1342642
-0.004461646 -0.01314324 0.1342418
-0.003281891 -0.01353657 0.1342195
-0.002102137 -0.0139299 0.1341971
-0.0009223223 -0.01432323 0.1341747
0.0002573729 -0.01471657 0.1341523
0.001437187 -0.0151099 0.1341299
0.002616942 -0.01550323 0.1341075
0.003796697 -0.01589653 0.1340851
0.005617559 -0.01488739 0.132729
0.00680095 -0.01528192 0.1327066
0.00798434 -0.01567644 0.1326841
0.009167671 -0.01607096 0.1326616
0.01035106 -0.01646551 0.1326392
0.01153445 -0.01686004 0.1326167
0.01304924 -0.01655692 0.1319271
0.01423442 -0.01695207 0.1319047
0.0154196 -0.01734722 0.1318822
0.01694161 -0.01704651 0.1311925
0.01812857 -0.01744226 0.13117
0.01897514 -0.0185326 0.1318147
0.02050257 -0.01823372 0.1311249
0.02134556 -0.01932287 0.1317697
0.02253073 -0.01971799 0.1317472
-0.0690462 0.06060523 0.09098166
-0.06774718 0.06017214 0.09095702
-0.0662564 0.06048173 0.09026673
-0.06495559 0.06004804 0.09024206
-0.06365478 0.05961436 0.09021735
-0.06235397 0.05918068 0.09019268
-0.06105316 0.05874699 0.090168
-0.05935067 0.05979252 0.08881158
-0.05804622 0.05935764 0.08878681
-0.05674183 0.05892271 0.08876207
-0.05523115 0.05922562 0.08807141
-0.05392492 0.05879015 0.08804661
-0.05261868 0.05835468 0.08802181
-0.05131245 0.0579192 0.08799705
-0.05000621 0.05748367 0.08797225
-0.04826945 0.05851775 0.08661523
-0.04695958 0.05808109 0.08659038
-0.01215351 -0.01240206 0.1342585
-0.01097554 -0.01279479 0.1342361
-0.009499192 -0.01248038 0.1335461
-0.008319378 -0.01287371 0.1335237
-0.006535649 -0.0118553 0.1321658
-0.005959868 -0.01366037 0.1334789
-0.004780114 -0.0140537 0.1334565
-0.003600359 -0.01444703 0.1334341
-0.002420545 -0.01484036 0.1334117
-0.0006187558 -0.01382798 0.1320536
-6.103516e-05 -0.015627 0.133367
0.00111872 -0.01602033 0.1333446
0.002931356 -0.01501155 0.1319862
0.003478289 -0.01680699 0.1332998
0.004658043 -0.01720029 0.1332774
0.006481528 -0.01619515 0.1319188
0.007664919 -0.01658967 0.1318964
0.00884831 -0.01698422 0.1318739
0.0100317 -0.01737875 0.1318514
0.01121509 -0.01777327 0.131829
0.01239848 -0.01816779 0.1318066
0.01391453 -0.0178667 0.1311157
0.0150997 -0.01826182 0.1310932
0.01662123 -0.01796255 0.1304024
0.0178082 -0.01835829 0.1303798
0.0186553 -0.01944724 0.1310257
0.01984048 -0.01984236 0.1310033
0.02102566 -0.02023751 0.1309808
0.02221084 -0.02063262 0.1309583
-0.06939685 0.0596028 0.09011695
-0.06809783 0.05916971 0.0900923
-0.06660748 0.05947787 0.08940083
-0.06530666 0.05904418 0.08937615
-0.06400585 0.0586105 0.08935145
-0.06270504 0.05817682 0.08932677
-0.06140423 0.05774313 0.08930209
-0.05970275 0.05878586 0.08794326
-0.05839831 0.05835098 0.08791852
-0.05709386 0.0579161 0.08789375
-0.05558372 0.05821759 0.08720189
-0.05427748 0.05778211 0.0871771
-0.05297124 0.05734664 0.0871523
-0.05166501 0.05691117 0.08712751
-0.05035877 0.05647564 0.08710274
-0.04905254 0.05604017 0.08707795
-0.0477463 0.0556047 0.08705318
-0.01217717 -0.01260418 0.1328055
-0.01099741 -0.01299751 0.1327831
-0.009221852 -0.01197949 0.131423
-0.008038461 -0.01237401 0.1314005
-0.00685513 -0.01276857 0.1313781
-0.006278276 -0.01457083 0.1326936
-0.005098581 -0.01496416 0.1326712
-0.003918767 -0.01535746 0.1326488
-0.002739012 -0.0157508 0.1326264
-0.0009381771 -0.01474121 0.1312658
0.0002452135 -0.01513574 0.1312433
0.0008003116 -0.01693076 0.1325592
0.002611995 -0.01592481 0.1311984
0.003159881 -0.01771742 0.1325145
0.004978716 -0.01671386 0.1311535
0.006162107 -0.01710838 0.1311311
0.007345498 -0.0175029 0.1311086
0.008528888 -0.01789746 0.1310862
0.009712279 -0.01829198 0.1310637
0.01089561 -0.0186865 0.1310412
0.01240945 -0.01838619 0.1303492
0.01359463 -0.0187813 0.1303267
0.01511383 -0.01848283 0.1296347
0.0163008 -0.01887858 0.1296122
0.01748782 -0.01927429 0.1295897
0.01867485 -0.01967004 0.1295671
0.01986182 -0.02006578 0.1295446
0.02070576 -0.02115211 0.1301918
0.02189094 -0.02154726 0.1301693
-0.06974745 0.05860031 0.08925223
-0.06844842 0.05816722 0.08922759
-0.0671494 0.05773413 0.08920294
-0.06585038 0.05730104 0.08917829
-0.06455141 0.05686796 0.08915365
-0.06305617 0.05717295 0.08846086
-0.06175536 0.05673927 0.08843619
-0.06045455 0.05630559 0.08841148
-0.05875039 0.05734432 0.0870502
-0.057446 0.05690944 0.08702543
-0.05593628 0.05720955 0.08633235
-0.05463004 0.05677408 0.08630759
-0.05332381 0.05633861 0.08628279
-0.05201757 0.05590314 0.08625799
-0.05028641 0.05693281 0.08489624
-0.04897654 0.05649608 0.08487138
-0.04766667 0.05605942 0.08484653
-0.01249564 -0.01351464 0.1320201
-0.01072466 -0.01249817 0.1306577
-0.009541273 -0.01289272 0.1306352
-0.008357882 -0.01328725 0.1306128
-0.006873488 -0.01297867 0.1299201
-0.005991101 -0.01407629 0.1305679
-0.004807711 -0.01447085 0.1305454
-0.004237175 -0.0162679 0.1318634
-0.002440989 -0.01525989 0.1305005
-0.001257598 -0.01565444 0.1304781
-7.420778e-05 -0.01604897 0.1304556
0.001109183 -0.01644349 0.1304331
0.002292573 -0.01683801 0.1304107
0.003475904 -0.01723254 0.1303882
0.004659295 -0.01762709 0.1303658
0.005842686 -0.01802161 0.1303433
0.007026076 -0.01841614 0.1303209
0.008209467 -0.01881069 0.1302984
0.009719133 -0.01851055 0.1296053
0.01090431 -0.01890567 0.1295828
0.01241946 -0.01860738 0.1288896
0.01360643 -0.01900312 0.1288671
0.015127 -0.01870656 0.1281738
0.01631582 -0.0191029 0.1281512
0.01750457 -0.01949924 0.1281286
0.01835442 -0.02058607 0.128777
0.01954138 -0.02098179 0.1287545
0.02072841 -0.02137753 0.128732
0.02157104 -0.02246189 0.1293804
-0.06879902 0.05716473 0.08836287
-0.06750005 0.05673164 0.08833823
-0.06600893 0.05703646 0.08764431
-0.06470811 0.05660278 0.08761963
-0.0634073 0.05616909 0.08759493
-0.06210649 0.05573541 0.08757025
-0.06040692 0.05677259 0.08620661
-0.05910248 0.05633765 0.08618188
-0.05759513 0.05663705 0.0854876
-0.05628884 0.05620152 0.08546284
-0.05498266 0.05576605 0.08543804
-0.05367637 0.05533057 0.08541328
-0.05237019 0.05489504 0.08538848
-0.0510639 0.05445957 0.08536369
-0.04975766 0.0540241 0.08533889
-0.04845142 0.05358857 0.08531412
-0.01104403 -0.0134114 0.1298699
-0.009860694 -0.01380593 0.1298475
-0.006884992 -0.009986669 0.125797
-0.00689286 -0.01319164 0.1284598
-0.006008208 -0.01428843 0.1291087
-0.004823029 -0.01468357 0.1290862
-0.003943801 -0.0157786 0.1297352
-0.00276041 -0.01617312 0.1297128
-0.001267433 -0.01586896 0.1290188
-8.225441e-05 -0.01626411 0.1289963
0.001102924 -0.01665923 0.1289738
0.002288103 -0.01705438 0.1289513
0.003473282 -0.0174495 0.1289288
0.004977107 -0.017149 0.1282346
0.006164074 -0.01754472 0.1282121
0.007351041 -0.01794046 0.1281896
0.008862078 -0.01764229 0.1274952
0.01070249 -0.01665211 0.1261289
0.01222253 -0.016357 0.1254344
0.01341677 -0.01675513 0.1254117
0.01494229 -0.01646179 0.1247171
0.01647133 -0.0161697 0.1240225
0.0176692 -0.01656905 0.1239997
0.01853037 -0.01765803 0.124649
0.0197264 -0.01805678 0.1246263
0.02194321 -0.0163902 0.1225873
0.02314466 -0.01679078 0.1225645
0.02434611 -0.01719132 0.1225417
-0.06914967 0.0561623 0.08749819
-0.06766081 0.05646628 0.08680308
-0.06636 0.0560326 0.0867784
-0.06505919 0.05559891 0.08675373
-0.06375837 0.05516523 0.08672902
-0.06245756 0.05473155 0.08670434
-0.06075901 0.05576593 0.08533829
-0.05925393 0.05606449 0.08464289
-0.0579477 0.05562896 0.08461809
-0.05664146 0.05519348 0.08459333
-0.05533522 0.05475801 0.08456853
-0.05402899 0.05432254 0.08454373
-0.05230331 0.05534786 0.08317724
-0.05099344 0.05491114 0.08315238
-0.05011022 0.05301607 0.08446938
-0.04880404 0.05258054 0.08444458
-0.007505536 -0.01160917 0.1256746
-0.007213235 -0.01410764 0.1276697
-0.006328106 -0.01520306 0.1283198
-0.005142927 -0.01559821 0.1282973
-0.003957748 -0.01599333 0.1282748
-0.00277257 -0.01638848 0.1282523
-0.001587391 -0.0167836 0.1282298
-0.0004021525 -0.01717871 0.1282073
0.001095712 -0.0168778 0.127512
0.002282739 -0.01727355 0.1274895
0.003785968 -0.01697436 0.1267941
0.004974842 -0.0173707 0.1267715
0.006163597 -0.01776704 0.126749
0.007995844 -0.01677722 0.1253805
0.009511769 -0.01648229 0.1246848
0.01103133 -0.01618856 0.123989
0.01255453 -0.01589602 0.1232933
0.01375234 -0.01629537 0.1232706
0.01495016 -0.01669472 0.1232478
0.01681316 -0.01571518 0.1218787
0.01834893 -0.01542687 0.1211827
0.01921606 -0.01651627 0.1218331
0.02041745 -0.01691684 0.1218103
0.02161896 -0.01731738 0.1217875
0.02282035 -0.01771796 0.1217647
0.0240218 -0.0181185 0.1217419
-0.06950033 0.05515981 0.08663344
-0.06801194 0.05546242 0.08593714
-0.06671113 0.05502874 0.08591247
-0.06541032 0.05459505 0.08588779
-0.0641095 0.05416137 0.08586311
-0.06241554 0.05519414 0.08449471
-0.06111109 0.05475926 0.08446997
-0.05960649 0.05505645 0.08377337
-0.05830026 0.05462092 0.08374858
-0.05699402 0.05418545 0.08372378
-0.05568779 0.05374998 0.08369899
-0.05396676 0.05477369 0.08233017
-0.05265689 0.05433702 0.08230531
-0.05134702 0.0539003 0.08228046
-0.05046284 0.05200797 0.08359987
-0.04872733 0.05302691 0.08223075
-0.04720104 0.05331683 0.08153373
-0.04588938 0.05287957 0.08150885
-0.006934166 -0.01043081 0.1228596
-0.007234097 -0.01432472 0.1262057
-0.006346643 -0.01541942 0.126857
-0.005462825 -0.01651281 0.1275083
-0.004277587 -0.01690796 0.1274858
-0.003092408 -0.01730308 0.1274633
-0.001598656 -0.01700234 0.1267669
-0.0004116893 -0.01739809 0.1267444
0.001087546 -0.01709908 0.1260478
0.002276301 -0.01749542 0.1260253
0.003465116 -0.01789176 0.1260027
0.005289197 -0.01690233 0.1246319
0.006481588 -0.01729986 0.1246093
0.007995248 -0.01700577 0.1239125
0.009512484 -0.01671278 0.1232156
0.01103336 -0.01642105 0.1225187
0.01223123 -0.01682043 0.1224959
0.01342905 -0.01721975 0.1224732
0.0152874 -0.01624179 0.1211017
0.01682091 -0.01595429 0.1204046
0.01802415 -0.01635545 0.1203817
0.01922739 -0.01675659 0.1203589
0.02076817 -0.01647145 0.1196615
0.02163392 -0.0175589 0.1203133
0.02283716 -0.01796007 0.1202904
0.02404046 -0.01836121 0.1202676
-0.06985092 0.05415738 0.08576876
-0.06836307 0.05445856 0.08507127
-0.06706226 0.05402488 0.08504656
-0.06576145 0.05359119 0.08502188
-0.06446064 0.05315751 0.08499721
-0.06315976 0.05272382 0.0849725
-0.06146318 0.05375266 0.08360165
-0.06015873 0.05331773 0.08357692
-0.05865282 0.05361289 0.08287907
-0.05734658 0.05317742 0.08285427
-0.05604035 0.05274194 0.08282948
-0.05432028 0.05376285 0.08145824
-0.0530104 0.05332619 0.08143339
-0.05170059 0.05288947 0.08140853
-0.0508154 0.05099994 0.08273035
-0.04908085 0.05201608 0.08135882
-0.04777104 0.05157942 0.08133397
-0.04646116 0.05114269 0.08130911
-0.006956816 -0.01384711 0.1240644
-0.006366134 -0.01563847 0.1253918
-0.005480051 -0.01673117 0.1260444
-0.004293084 -0.01712692 0.1260218
-0.003106058 -0.01752263 0.1259993
-0.001919031 -0.01791838 0.1259768
-0.0004221201 -0.01762018 0.1252791
0.0007666349 -0.01801652 0.1252565
0.00258249 -0.01702747 0.1238834
0.003774881 -0.017425 0.1238608
0.004967332 -0.01782253 0.1238382
0.006478667 -0.01752922 0.1231402
0.007993639 -0.01723704 0.1224421
0.009512186 -0.01694611 0.121744
0.01071 -0.01734546 0.1217213
0.01190788 -0.01774481 0.1216986
0.01376164 -0.01676843 0.1203248
0.01529288 -0.0164817 0.1196264
0.0168277 -0.01619613 0.1189279
0.01803279 -0.0165979 0.1189051
0.01923788 -0.01699966 0.1188822
0.02111691 -0.01603171 0.117508
0.02232558 -0.01643467 0.117485
0.02285302 -0.01820493 0.1188136
0.0240581 -0.01860669 0.1187907
-0.06871414 0.0534547 0.08420533
-0.06741333 0.05302101 0.08418065
-0.06611252 0.05258733 0.08415598
-0.06481171 0.05215365 0.08413127
-0.06311971 0.05318087 0.0827581
-0.06181526 0.052746 0.08273333
-0.06031162 0.05304033 0.08203432
-0.05900538 0.05260485 0.08200952
-0.05769914 0.05216938 0.08198476
-0.05639291 0.05173391 0.08195996
-0.05467379 0.05275208 0.08058631
-0.05336398 0.05231535 0.08056146
-0.05205411 0.05187863 0.0805366
-0.0507443 0.05144197 0.08051175
-0.04943442 0.05100524 0.08048689
-0.04812455 0.05056858 0.08046204
-0.006987274 -0.01088616 0.1199126
-0.006681561 -0.01337504 0.1219183
-0.00608629 -0.01516485 0.1232481
-0.00549823 -0.01695222 0.1245779
-0.004309416 -0.01734856 0.1245554
-0.003120661 -0.0177449 0.1245328
-0.001316607 -0.01675504 0.1231576
-0.0001242161 -0.01715258 0.1231349
0.001068234 -0.01755011 0.1231123
0.002573669 -0.01725638 0.1224132
0.00408268 -0.01696378 0.121714
0.004962087 -0.01805267 0.1223679
0.006474733 -0.01776129 0.1216686
0.007991076 -0.01747113 0.1209694
0.00918889 -0.01787049 0.1209466
0.01103449 -0.01689449 0.1195706
0.01223588 -0.01729503 0.1195478
0.01343739 -0.01769561 0.119525
0.0149681 -0.01741025 0.1188255
0.0165025 -0.01712611 0.1181258
0.01837331 -0.01615852 0.1167493
0.01958197 -0.01656151 0.1167263
0.0207907 -0.01696447 0.1167034
0.02132273 -0.01873314 0.1180343
0.02252781 -0.01913488 0.1180114
0.02373284 -0.01953664 0.1179886
-0.06906527 0.05245084 0.08333942
-0.06776446 0.05201715 0.08331472
-0.06646365 0.05158347 0.08329004
-0.06516284 0.05114979 0.08326536
-0.06386197 0.0507161 0.08324069
-0.06216735 0.05173934 0.08186501
-0.0608629 0.05130446 0.08184028
-0.059358 0.05159682 0.08114001
-0.05805171 0.05116135 0.08111522
-0.05674553 0.05072582 0.08109045
-0.05543923 0.05029035 0.08106565
-0.054133 0.04985487 0.08104086
-0.05240768 0.05086786 0.07966468
-0.05109781 0.05043113 0.07963982
-0.04957479 0.05071747 0.07893923
-0.04826313 0.05028015 0.07891434
-0.007311583 -0.01181334 0.1191128
-0.00700438 -0.01429805 0.1211221
-0.006408155 -0.01608506 0.1224543
-0.005215704 -0.01648259 0.1224317
-0.004023314 -0.01688015 0.122409
-0.002830863 -0.01727769 0.1223864
-0.001638472 -0.01767522 0.1223638
-0.0001371503 -0.01738167 0.1216636
0.001057088 -0.01777983 0.1216409
0.002251327 -0.01817799 0.1216182
0.003759861 -0.01788679 0.1209179
0.004955888 -0.01828551 0.1208952
0.006469905 -0.01799616 0.1201947
0.00766778 -0.01839551 0.120172
0.008865595 -0.01879486 0.1201493
0.01071018 -0.01782167 0.1187708
0.01223683 -0.01753652 0.1180702
0.01376706 -0.01725256 0.1173693
0.01497209 -0.0176543 0.1173464
0.01683843 -0.01668832 0.1159676
0.01804709 -0.01709127 0.1159447
0.01925576 -0.01749426 0.1159218
0.02046442 -0.01789722 0.1158988
0.02099741 -0.0196631 0.1172321
0.02220249 -0.02006486 0.1172093
-0.0694164 0.05144697 0.08247352
-0.06811559 0.05101329 0.08244881
-0.06681478 0.05057961 0.08242413
-0.06551391 0.05014592 0.08239946
-0.06382388 0.05116755 0.08102146
-0.06251943 0.05073267 0.08099669
-0.0610168 0.05102426 0.08029526
-0.05971056 0.05058879 0.08027047
-0.05840433 0.05015332 0.0802457
-0.05709803 0.04971778 0.08022091
-0.05538094 0.05073041 0.07884246
-0.05407107 0.05029368 0.07881761
-0.0527612 0.04985696 0.07879275
-0.05145139 0.0494203 0.0787679
-0.05014151 0.04898363 0.07874304
-0.0488317 0.04854691 0.07871819
0.003361046 0.06918871 0.04542655
0.004757643 0.06872314 0.04540002
-0.007044256 -0.0113526 0.1169559
-0.007029593 -0.01452771 0.1196474
-0.006131172 -0.01561978 0.1203033
-0.004935145 -0.01601854 0.1202806
-0.004042149 -0.01710886 0.1209366
-0.00284791 -0.01750699 0.1209139
-0.001347065 -0.01721478 0.1202125
-0.0004594326 -0.01830328 0.1208686
0.001044989 -0.01801229 0.1201671
0.002241015 -0.01841101 0.1201444
0.00375092 -0.01812184 0.1194428
0.004948735 -0.01852119 0.1194201
0.00614655 -0.01892054 0.1193974
0.007982969 -0.01794773 0.1180167
0.00918442 -0.01834828 0.1179939
0.01070875 -0.01806393 0.117292
0.01191199 -0.01846507 0.1172692
0.0134418 -0.01818252 0.1165671
0.01464689 -0.01858425 0.1165443
0.01651216 -0.01762107 0.1151631
0.01772082 -0.01802403 0.1151401
0.01892948 -0.01842701 0.1151172
0.02013814 -0.01882997 0.1150942
0.0206722 -0.02059305 0.11643
0.02187729 -0.02099481 0.1164071
-0.06976748 0.05044311 0.08160758
-0.06846666 0.05000943 0.0815829
-0.06716585 0.04957575 0.08155823
-0.06548035 0.05059582 0.08017787
-0.06417596 0.05016094 0.08015314
-0.06287152 0.04972607 0.08012837
-0.06136936 0.05001622 0.07942575
-0.06006312 0.04958075 0.07940096
-0.05875689 0.04914522 0.07937619
-0.05704433 0.05015624 0.07799539
-0.05573446 0.04971957 0.07797053
-0.05483818 0.04783875 0.07930183
-0.05311477 0.04884619 0.07792082
-0.0518049 0.04840946 0.07789597
-0.05049503 0.0479728 0.07787111
-0.04918522 0.04753608 0.07784626
0.00158751 0.06857657 0.04452342
0.002984047 0.068111 0.04449689
0.004380643 0.06764537 0.04447037
0.00577724 0.06717974 0.04444391
-0.007664859 -0.01297516 0.1168335
-0.00675869 -0.01406825 0.1174905
-0.006155074 -0.01585144 0.1188273
-0.004957259 -0.01625079 0.1188046
-0.004061937 -0.01734027 0.1194617
-0.002865911 -0.01773903 0.119439
-0.001363754 -0.01744884 0.1187364
-0.0004738569 -0.01853651 0.1193936
0.001031935 -0.01824754 0.1186909
0.00222981 -0.0186469 0.1186682
0.004054308 -0.01767322 0.1172853
0.005255818 -0.0180738 0.1172625
0.00645721 -0.01847434 0.1172397
0.00765872 -0.01887488 0.1172169
0.009180725 -0.01859134 0.1165139
0.01070642 -0.01830894 0.1158107
0.01191151 -0.0187107 0.1157878
0.01376855 -0.01774788 0.1144044
0.01497722 -0.01815087 0.1143814
0.01651555 -0.01787272 0.113678
0.01805747 -0.01759583 0.1129746
0.01893651 -0.01867986 0.1136321
0.01981193 -0.01976272 0.1142897
0.02034688 -0.02152303 0.1156278
0.02155197 -0.02192479 0.1156049
-0.06844133 0.05045897 0.07935905
-0.06713688 0.05002409 0.07933432
-0.0658325 0.04958916 0.07930955
-0.06452805 0.04915428 0.07928482
-0.06302816 0.04944366 0.07858101
-0.06172192 0.04900819 0.07855624
-0.06041569 0.04857272 0.07853144
-0.05910945 0.04813719 0.07850665
-0.05739784 0.0491454 0.07712346
-0.05608803 0.04870874 0.07709861
-0.05477816 0.04827201 0.07707375
-0.05346835 0.04783535 0.0770489
-0.05215847 0.04739863 0.07702404
-0.05063689 0.0476808 0.07631981
-0.04932523 0.04724354 0.07629493
-0.04801357 0.04680622 0.07627004
-0.04670191 0.0463689 0.07624516
-0.001582563 0.06843007 0.04364675
-0.0001860261 0.06796443 0.04362023
0.00121057 0.06749886 0.04359376
0.002339423 0.066333 0.04424775
0.003734171 0.06586802 0.04422128
0.00512898 0.06540298 0.04419482
-0.007694781 -0.01321253 0.1153515
-0.007082999 -0.01499543 0.1166907
-0.005881548 -0.01539597 0.1166679
-0.004680097 -0.01579654 0.1166451
-0.004082739 -0.01757455 0.1179845
-0.002277195 -0.01659763 0.1165995
-0.001075745 -0.0169982 0.1165767
0.0001257062 -0.01739874 0.1165539
0.001327157 -0.01779929 0.1165311
0.002528608 -0.01819986 0.1165083
0.004042923 -0.01791528 0.1158043
0.005246162 -0.01831645 0.1157814
0.006449461 -0.01871759 0.1157586
0.0076527 -0.01911876 0.1157357
0.009176075 -0.01883715 0.1150314
0.01102495 -0.01787472 0.1136456
0.01255739 -0.01759616 0.1129412
0.01376784 -0.01799974 0.1129182
0.01497829 -0.01840329 0.1128953
0.01684713 -0.01744747 0.1115091
0.01872313 -0.01649404 0.1101227
0.01894253 -0.01893553 0.1121447
0.01982027 -0.02001756 0.1128034
0.02002168 -0.02245298 0.1148256
0.0212267 -0.02285475 0.1148027
-0.06879342 0.0494523 0.07849073
-0.06748897 0.04901743 0.078466
-0.06618452 0.04858255 0.07844123
-0.06488013 0.04814762 0.0784165
-0.06357569 0.04771274 0.07839173
-0.06207448 0.04800016 0.0776867
-0.06076825 0.04756469 0.07766193
-0.05906129 0.04857129 0.07627636
-0.05775142 0.04813462 0.07625151
-0.05644155 0.0476979 0.07622665
-0.05513173 0.04726118 0.0762018
-0.05382186 0.04682451 0.07617694
-0.05251199 0.04638779 0.07615209
-0.05120218 0.04595113 0.07612723
-0.04967928 0.04623127 0.07542181
-0.04836762 0.04579401 0.07539693
-0.01526535 0.06942469 0.0449993
-0.01387417 0.06896085 0.0449729
-0.01198471 0.06990671 0.04358399
-0.01058996 0.06944168 0.04355752
-0.009195209 0.0689767 0.04353106
-0.0078004 0.06851166 0.0435046
-0.004236341 0.06968707 0.04140717
-0.002836108 0.06922024 0.04138058
-0.001959562 0.06735229 0.0427171
-0.0008265972 0.06618667 0.04337221
0.0005681515 0.06572169 0.04334575
0.00196296 0.06525666 0.04331928
0.003357708 0.06479162 0.04329282
0.004752517 0.06432664 0.04326636
0.006147265 0.06386167 0.04323989
-0.008347571 -0.0116697 0.1125259
-0.008020043 -0.01414248 0.1145493
-0.006814957 -0.01454425 0.1145265
-0.005907893 -0.0156346 0.1151859
-0.004704654 -0.01603574 0.1151631
-0.003802896 -0.01712424 0.1158225
-0.002298117 -0.01683807 0.1151174
-0.001094878 -0.01723921 0.1150946
0.0001083612 -0.01764038 0.1150718
0.00131166 -0.01804155 0.1150489
0.002825499 -0.01775831 0.1143436
0.004030585 -0.01816007 0.1143207
0.005235672 -0.01856184 0.1142978
0.006440699 -0.01896361 0.1142749
0.00828135 -0.01800156 0.1128869
0.009809673 -0.01772317 0.1121813
0.01134157 -0.01744607 0.1114757
0.01287711 -0.01717007 0.11077
0.0147413 -0.01621583 0.1093815
0.01595902 -0.0166218 0.1093583
0.01750535 -0.01634949 0.1086524
0.01872486 -0.01675606 0.1086293
0.01994443 -0.01716265 0.1086061
0.02149802 -0.01689267 0.1079001
0.02271932 -0.01729986 0.1078769
0.02495372 -0.01568118 0.1058048
-0.06952 0.04699785 0.07898515
-0.06784105 0.04801077 0.07759768
-0.06653666 0.04757589 0.07757291
-0.06523222 0.04714102 0.07754818
-0.06373334 0.04742759 0.07684198
-0.06242704 0.04699212 0.07681718
-0.06072468 0.04799718 0.07542932
-0.0594148 0.04756045 0.07540447
-0.05810499 0.04712373 0.07537961
-0.05679512 0.04668707 0.07535475
-0.05548525 0.0462504 0.0753299
-0.05417538 0.04581368 0.07530504
-0.05286556 0.04537696 0.07528019
-0.05155569 0.04494029 0.07525533
-0.05003333 0.04521906 0.07454866
-0.04872167 0.04478174 0.07452381
-0.01981425 0.0697425 0.04415244
-0.01842314 0.06927872 0.04412603
-0.01564085 0.06835109 0.04407328
-0.01424968 0.06788731 0.04404688
-0.01285851 0.06742352 0.04402047
-0.01096642 0.06836534 0.04262906
-0.009571671 0.0679003 0.0426026
-0.008176863 0.06743532 0.04257613
-0.006014407 0.06907338 0.04050171
-0.005129635 0.06720573 0.04184043
-0.003733039 0.06674016 0.04181391
-0.002597809 0.0655753 0.04247028
-0.00120306 0.06511027 0.04244381
0.0001916885 0.06464529 0.04241735
0.001586497 0.06418031 0.04239088
0.002981246 0.06371528 0.04236442
0.004375994 0.0632503 0.04233795
0.005770802 0.06278527 0.04231149
-0.008674264 -0.01260382 0.1117201
-0.007757664 -0.01369578 0.1123805
-0.007140279 -0.0154742 0.1137243
-0.006232679 -0.01656318 0.1143849
-0.00502944 -0.01696432 0.1143621
-0.003826141 -0.01736549 0.1143393
-0.002320051 -0.01708126 0.1136328
-0.001114964 -0.017483 0.11361
9.012222e-05 -0.01788476 0.1135871
0.001295209 -0.01828653 0.1135643
0.003120422 -0.01732245 0.1121741
0.004329085 -0.01772541 0.1121511
0.005537748 -0.01812837 0.1121282
0.007061958 -0.01785019 0.1114215
0.008272469 -0.01825377 0.1113985
0.009802103 -0.01797745 0.1106917
0.01133531 -0.01770225 0.1099848
0.01319492 -0.01674956 0.108594
0.01441264 -0.01715553 0.1085709
0.0159567 -0.01688403 0.1078638
0.01717621 -0.01729059 0.1078406
0.01872569 -0.01702082 0.1071334
0.01994705 -0.01742801 0.1071102
0.02183551 -0.01648498 0.1057189
0.02339584 -0.0162189 0.1050114
0.02462256 -0.01662788 0.1049882
0.02584934 -0.01703686 0.1049649
-0.06949759 0.04743904 0.07675409
-0.06819314 0.0470041 0.07672936
-0.06688869 0.04656923 0.07670459
-0.06539214 0.04685503 0.07599723
-0.06408584 0.04641956 0.07597244
-0.06277966 0.04598409 0.07594767
-0.06107819 0.04698634 0.07455736
-0.05976838 0.04654962 0.07453251
-0.05845851 0.04611295 0.07450765
-0.05714869 0.04567623 0.0744828
-0.05563396 0.04595602 0.07377511
-0.05452895 0.04480284 0.07443309
-0.0530107 0.04508144 0.07372534
-0.05169904 0.04464412 0.07370043
-0.05038738 0.04420686 0.07367554
-0.02760577 0.06957179 0.04472518
-0.02621824 0.06910926 0.04469883
-0.0248307 0.06864661 0.04467255
-0.02367866 0.06747782 0.04532963
-0.02229297 0.06701583 0.04530334
-0.02090722 0.06655383 0.04527706
-0.01928055 0.06679624 0.04456723
-0.01789302 0.06633365 0.04454088
-0.01650548 0.06587106 0.04451454
-0.01511794 0.06540847 0.04448825
-0.01373041 0.06494588 0.04446191
-0.01184285 0.06588614 0.04306805
-0.01045167 0.06542236 0.04304165
-0.009060562 0.06495851 0.04301524
-0.007669389 0.06449473 0.04298884
-0.006278276 0.06403095 0.04296243
-0.004887104 0.0635671 0.04293603
-0.003495932 0.06310332 0.04290962
-0.002104759 0.06263953 0.04288322
-0.0007136464 0.06217575 0.04285687
0.000677526 0.06171191 0.04283047
0.002068639 0.06124812 0.04280406
0.003459811 0.06078434 0.04277766
0.00539434 0.06170893 0.04138303
-0.009001017 -0.01353797 0.1109143
-0.00808388 -0.01462853 0.1115759
-0.006875217 -0.01503149 0.111553
-0.006260455 -0.01680595 0.1128993
-0.005055428 -0.01720768 0.1128764
-0.003850341 -0.01760945 0.1128535
-0.002040505 -0.01664335 0.1114613
-0.0008318424 -0.0170463 0.1114383
0.0006828308 -0.01676652 0.1107306
0.001893282 -0.01717007 0.1107076
0.003103793 -0.01757365 0.1106846
0.004314303 -0.01797721 0.1106616
0.005837977 -0.01770046 0.1099538
0.007050276 -0.01810464 0.1099308
0.008579433 -0.01782963 0.1092227
0.00979352 -0.0182344 0.1091997
0.01164854 -0.01728332 0.1078065
0.01318848 -0.017012 0.1070982
0.01440799 -0.01741856 0.1070751
0.0156275 -0.01782513 0.107052
0.01815772 -0.01552963 0.104288
0.0193845 -0.01593864 0.1042647
0.02061129 -0.01634762 0.1042414
0.02217108 -0.01608288 0.1035328
0.02574396 -0.01178068 0.09871197
0.02698517 -0.01219448 0.09868842
0.02822638 -0.01260829 0.09866485
-0.06966341 0.04715347 0.07520208
-0.06835717 0.046718 0.07517728
-0.06667113 0.04772228 0.07378486
-0.0657447 0.045847 0.07512772
-0.06405145 0.04684889 0.07373518
-0.06274164 0.04641217 0.07371032
-0.06143177 0.04597551 0.07368547
-0.06012189 0.04553878 0.07366061
-0.05881202 0.04510212 0.07363576
-0.05729967 0.04538113 0.07292688
-0.05598801 0.04494381 0.07290196
-0.05467635 0.04450649 0.07287708
-0.05336469 0.04406923 0.07285219
-0.05205303 0.04363191 0.07282731
-0.05074137 0.04319459 0.07280242
-0.03214288 0.06988883 0.04388052
-0.0307554 0.06942624 0.04385418
-0.0293678 0.06896365 0.04382789
-0.02798033 0.06850106 0.04380155
-0.02682418 0.06733239 0.04445976
-0.02543843 0.06687039 0.04443347
-0.02405274 0.0664084 0.04440719
-0.02314073 0.06453794 0.04575032
-0.02175856 0.0640772 0.04572409
-0.01989555 0.06502241 0.04432833
-0.01850981 0.06456047 0.04430205
-0.01687998 0.06480026 0.0435909
-0.01549244 0.06433767 0.04356456
-0.0141049 0.06387508 0.04353827
-0.01221836 0.06481254 0.04214197
-0.01082718 0.06434876 0.04211557
-0.009436011 0.06388497 0.04208916
-0.008554757 0.06202471 0.04343295
-0.006653726 0.06295735 0.04203635
-0.005262613 0.06249356 0.04201001
-0.004392147 0.06063694 0.04335397
-0.003004611 0.06017435 0.04332763
-0.001089096 0.06110215 0.04193079
-0.0002295375 0.05924916 0.04327494
0.001157999 0.05878657 0.04324865
0.003084302 0.05971074 0.04185158
0.005017877 0.06063253 0.04045457
-0.009327769 -0.01447213 0.1101085
-0.008117259 -0.01487571 0.1100855
-0.006906748 -0.01527926 0.1100626
-0.005696297 -0.01568282 0.1100396
-0.004784107 -0.01677015 0.1107025
-0.003575444 -0.01717311 0.1106796
-0.002064824 -0.01689354 0.1099707
-0.000854373 -0.01729709 0.1099477
0.0003560781 -0.01770067 0.1099248
0.001566589 -0.01810423 0.1099018
0.0027771 -0.01850778 0.1098788
0.004298449 -0.01823184 0.1091698
0.005510807 -0.01863602 0.1091468
0.00703764 -0.01836181 0.1084376
0.00888443 -0.01741108 0.1070421
0.01010215 -0.01781705 0.107019
0.01131988 -0.01822305 0.1069959
0.01318109 -0.01727712 0.1056001
0.01504958 -0.01633364 0.1042043
0.01659989 -0.01606733 0.1034946
0.01815385 -0.0158022 0.102785
0.01938236 -0.01621178 0.1027616
0.02061093 -0.01662138 0.1027383
0.0218395 -0.01703095 0.102715
0.0250746 -0.01341024 0.09857231
0.02631396 -0.01382345 0.0985488
0.02755332 -0.01423663 0.09852529
0.02879274 -0.01464984 0.09850177
-0.06833458 0.04714817 0.07293779
-0.06702471 0.04671144 0.07291293
-0.06609726 0.04483896 0.07425818
-0.06440502 0.04583806 0.07286322
-0.06290036 0.04611808 0.07215327
-0.06178534 0.04496467 0.07281351
-0.06047547 0.04452795 0.07278866
-0.0591656 0.04409128 0.0727638
-0.05765373 0.04436886 0.07205373
-0.05634207 0.04393154 0.07202885
-0.05503041 0.04349428 0.07200396
-0.05371875 0.04305696 0.07197905
-0.05240709 0.04261971 0.07195419
-0.05109543 0.04218239 0.07192928
-0.04978377 0.04174513 0.07190439
-0.03689837 0.06949699 0.04372138
-0.03551263 0.06903499 0.04369509
-0.03412688 0.068573 0.04366881
-0.03274113 0.068111 0.04364252
-0.03135538 0.06764901 0.04361624
-0.03042436 0.06577533 0.04496139
-0.02904224 0.06531453 0.04493517
-0.02766013 0.06485373 0.04490894
-0.02627802 0.06439292 0.04488271
-0.02489591 0.06393212 0.04485649
-0.02351379 0.06347138 0.04483026
-0.02213162 0.06301057 0.04480404
-0.02074951 0.06254977 0.04477781
-0.0193674 0.06208903 0.04475158
-0.01725447 0.06372952 0.04266727
-0.01611233 0.06256706 0.04332697
-0.01472664 0.06210506 0.04330069
-0.01259387 0.063739 0.04121596
-0.01120269 0.06327516 0.04118955
-0.009811521 0.06281137 0.04116315
-0.008929253 0.06095392 0.04250926
-0.007541716 0.06049132 0.04248297
-0.00615418 0.06002873 0.04245663
-0.005026519 0.05887115 0.04311663
-0.003640771 0.05840915 0.04309034
-0.002255082 0.05794716 0.04306406
-0.0008693337 0.05748516 0.04303777
0.0005164146 0.05702317 0.04301143
0.001902163 0.05656117 0.04298514
0.003287911 0.05609918 0.04295886
-0.00815165 -0.01512569 0.1085928
-0.0072335 -0.01621342 0.1092568
-0.006023049 -0.01661697 0.1092338
-0.004812539 -0.01702052 0.1092108
-0.003602028 -0.01742411 0.1091879
-0.002391577 -0.01782769 0.1091649
-0.001181126 -0.01823124 0.1091419
2.938509e-05 -0.0186348 0.109119
0.001239896 -0.01903838 0.109096
0.002450347 -0.01944193 0.109073
0.003971279 -0.01916736 0.1083628
0.005183578 -0.01957154 0.1083398
0.006709933 -0.01929873 0.1076294
0.008871615 -0.01767451 0.1055441
0.01009113 -0.01808107 0.1055209
0.01131064 -0.01848763 0.1054978
0.01285148 -0.01821965 0.1047871
0.01504207 -0.01660505 0.1027013
0.01659369 -0.0163407 0.1019905
0.01782227 -0.01675031 0.1019672
0.0197078 -0.01581562 0.1005685
0.02093995 -0.01622641 0.1005451
0.02217209 -0.01663721 0.1005217
0.02474004 -0.01436669 0.0977473
0.0259794 -0.0147799 0.09772378
0.02721882 -0.0151931 0.09770027
0.02845818 -0.01560631 0.09767675
0.0296976 -0.01601952 0.09765321
-0.06868809 0.04613733 0.07206586
-0.06737828 0.04570061 0.072041
-0.06606841 0.04526395 0.07201618
-0.06475854 0.04482722 0.07199132
-0.06325436 0.04510587 0.07128015
-0.0619427 0.04466856 0.07125527
-0.06063104 0.04423124 0.07123038
-0.05931938 0.04379398 0.0712055
-0.05800772 0.04335666 0.07118061
-0.05628937 0.04434395 0.06978267
-0.0553844 0.04248208 0.07113081
-0.05365884 0.04346699 0.06973276
-0.05234355 0.04302847 0.06970781
-0.05102825 0.04258996 0.06968284
-0.04971302 0.04215145 0.06965789
-0.03844213 0.06959766 0.04213852
-0.03727239 0.06842756 0.04279894
-0.03632587 0.06655186 0.0441463
-0.03494376 0.06609106 0.04412007
-0.03311515 0.06704158 0.04272008
-0.03172946 0.06657964 0.04269379
-0.03079742 0.06470871 0.0440414
-0.02941531 0.06424791 0.04401517
-0.02803314 0.06378716 0.04398894
-0.02665102 0.06332636 0.04396272
-0.02526891 0.06286556 0.04393649
-0.02435863 0.06100184 0.04528451
-0.02298009 0.06054223 0.04525834
-0.02160156 0.06008267 0.04523224
-0.01974046 0.0610224 0.04383159
-0.0178721 0.06195968 0.04243082
-0.01648641 0.06149769 0.04240453
-0.01510066 0.06103569 0.04237825
-0.01296932 0.0626654 0.04028988
-0.01018703 0.06173784 0.04023707
-0.008795857 0.06127399 0.04021066
-0.007916212 0.05942053 0.04155934
-0.006786287 0.05826372 0.04222047
-0.005400538 0.05780172 0.04219419
-0.004537165 0.05595374 0.0435431
-0.003154993 0.05549294 0.04351687
-0.001772881 0.05503219 0.04349065
-0.0003907681 0.05457139 0.04346442
0.0009913445 0.05411059 0.0434382
0.002373457 0.05364978 0.04341197
-0.007603168 -0.01401284 0.1057213
-0.007266521 -0.0164654 0.1077628
-0.006349742 -0.01755112 0.1084281
-0.005139232 -0.01795468 0.1084051
-0.003928781 -0.01835826 0.1083821
-0.002718329 -0.01876181 0.1083591
-0.001507819 -0.0191654 0.1083362
-0.000297308 -0.01956895 0.1083132
0.001219511 -0.01929459 0.1076018
0.00243175 -0.01969874 0.1075788
0.003644049 -0.02010292 0.1075558
0.006103396 -0.01780245 0.1047786
0.007322907 -0.01820904 0.1047554
0.008542418 -0.0186156 0.1047323
0.01007915 -0.0183478 0.1040204
0.0113005 -0.01875499 0.1039973
0.01316339 -0.01781586 0.1025967
0.01503354 -0.0168792 0.101196
0.01691091 -0.0159449 0.09979501
0.01846927 -0.01568437 0.09908283
0.01937521 -0.01676649 0.09974825
0.0209372 -0.01650715 0.09903601
0.0221712 -0.01691854 0.09901258
0.02340519 -0.01732993 0.09898919
0.0256449 -0.01573634 0.09689876
0.02688432 -0.01614955 0.09687525
0.02812368 -0.01656276 0.09685171
0.02936304 -0.01697594 0.09682819
-0.06941485 0.04369384 0.07256871
-0.0677318 0.04468977 0.07116908
-0.06642199 0.04425311 0.07114422
-0.06511211 0.04381639 0.07111937
-0.06360841 0.04409361 0.07040703
-0.06229675 0.04365629 0.07038212
-0.06098509 0.04321903 0.07035726
